# .PCD v0.7 - Point Cloud Data file format
VERSION 0.7
FIELDS x y z
SIZE 4 4 4
TYPE F F F
COUNT 1 1 1
WIDTH 1603
HEIGHT 1
VIEWPOINT 0 0 0 1 0 0 0
POINTS 1603
DATA ascii
70.708694 188.30809 -17.059544
81.122673 50.753418 22.811798
130.73947 73.131447 30.366364
90.573303 119.74362 40.796158
65.951912 160.77803 8.2111874
82.791862 58.184563 50.545208
95.593941 179.88483 -14.802536
65 98.51236 30.217447
81.454292 124.81988 24.597553
121.99615 151.72743 -7.2577858
95.965179 82.936722 27.739046
97.04055 176.04446 2.7909012
134.1357 188.5585 -0.56222534
115.80427 118.89258 40.74765
65 149.88557 24.539413
87.35527 92.564194 8.5949564
123.36433 183.00758 -15.639278
65.459106 60.791763 60.275421
107.12393 175.2072 -13.549171
127.79473 193.74446 -15.366442
118.30997 156.08241 20.877293
132.8356 64.922234 75.690536
113.92513 161.22565 6.761591
85.698814 177.60818 -11.080751
90 72.576294 75.381958
114.08157 196.44344 -5.2937126
133.338 120.68071 24.830189
90 65.403183 62.166912
78.143799 71.223022 76.429871
84.77034 156.54605 20.079691
105.88394 170.0883 4.3868504
123.22879 99.877037 11.266899
124.81403 145.07281 -3.5280533
67.103775 77.848557 62.112999
88.999573 107.90849 20.622303
75.767899 60.547466 17.173815
75.838341 91.622139 27.460182
87.537041 193.39368 -16.675606
104.49911 53.772102 18.989267
84.756866 58.038666 50.00071
67.989975 76.493629 75.017616
86.354736 121.95247 40.830017
85.444283 80.264954 28.454947
135 62.777733 51.43779
102.36698 81.569771 28.10532
126.54386 160.30176 -9.5552711
72.839851 56.721565 45.085224
121.42397 166.39764 -11.188658
96.429909 79.764099 12.024733
86.226524 151.30988 -7.1458988
90 73.085342 62.837929
65 146.47185 22.94396
126.23235 171.30472 -12.503502
64.999992 170.68553 -9.5270538
133.64273 121.85693 40.830086
79.939468 84.572746 27.300674
85.59668 72.368835 14.006287
112.39877 179.06223 -10.439089
102.16705 111.52929 22.675346
106.08788 167.82547 -11.571239
95.11087 54.429581 36.531425
114.46574 180.02895 -1.8307648
87.299469 136.24533 38.020958
123.0521 172.35141 -12.783962
65 137.69145 33.065617
118.59995 126.85638 40.473404
74.952232 79.85376 69.596519
109.23376 54.601887 37.174484
73.891777 78.914215 74.369011
102.78125 194.50476 -12.528984
72.937141 113.42504 40.026772
65 114.04245 38.81781
135 59.734848 36.21489
135 146.94055 12.945173
111.39589 79.927551 28.545351
93.617569 131.78934 22.501152
132.51477 95.410614 7.8322601
87.728119 56.212349 43.184803
76.912643 182.01929 1.1899529
67.844406 69.784554 32.017715
99.041336 88.939468 26.130617
129.74817 186.91075 -16.685127
87.937263 79.620903 68.727486
125.7648 93.96611 8.2193155
104.9986 139.9386 16.164522
108.08911 99.202782 9.7352467
65 57.800926 25.334251
103.20557 179.05536 1.9841347
99.989784 56.268948 18.32024
74.07119 53.200058 31.942776
122.92617 70.208046 33.598213
90.063377 60.874115 55.311668
64.999992 179.38292 -8.5757141
116.11092 113.44582 40.031654
121.60573 154.04965 -7.8800201
86.180237 196.6152 -2.7210121
65 95.973793 17.566629
92.399094 145.25092 -2.3470631
114.47204 61.35434 62.374977
109.94685 111.77197 39.638447
83.051392 150.19772 28.669241
65 67.817421 76.008003
86.892349 147.1582 -6.0334606
100.98859 53.566734 33.311237
123.43303 128.42342 23.803217
130.56529 145.44376 -0.28674889
135 77.038422 23.098618
65.916382 133.25336 21.74213
65 103.79036 22.635324
127.16431 173.38321 -13.060436
116.46078 173.06892 3.5881939
85.833076 79.679466 68.946045
91.121284 54.906921 18.685194
110.98196 147.3667 -6.0893288
104.68196 159.59154 -9.3649673
69.208191 97.604912 7.2443018
135 167.11096 3.8554916
103.73734 106.1447 19.294193
112.44839 174.74493 -13.425304
81.526985 193.75986 -15.308947
123.7331 104.50053 17.809975
65 102.27528 19.649841
118.39699 146.74313 31.840727
77.998062 73.442253 45.668427
79.213745 159.25429 13.968504
65 67.240776 46.693653
65.2659 154.33961 23.641542
67.571442 50.79208 22.956091
65 150.01288 25.947882
76.820358 80.235466 71.021049
98.27906 79.275253 12.15572
111.36534 89.837463 9.3255825
98.94062 190.86678 -1.1807251
135 108.82182 36.413567
80.108109 75.874939 13.06683
67.066498 126.99318 40.457352
105.99173 95.204453 7.8875027
90.119263 184.67519 0.47830582
111.83538 170.97774 4.1485271
116.31915 64.96347 75.84446
65 111.72071 25.283636
135 73.188416 13.79912
64.999992 185.07402 -12.490049
106.16782 188.22758 -17.037971
134.41289 174.86705 -13.458029
135 64.467323 69.872581
65 137.42842 33.752838
120.8709 184.11586 0.62817764
118.62593 67.591263 77.403
85.590256 154.46434 23.452938
65 128.22244 23.905001
135 137.75824 28.567806
134.43285 98.147415 33.321892
124.11449 52.501781 29.336777
110.56155 174.11996 3.3065681
65.938828 109.00119 21.336555
112.76334 56.308441 43.543434
123.47243 154.47754 -7.9946747
135 182.89603 -2.8573055
115.81156 168.2906 4.8685417
135 74.238197 23.10062
129.67839 88.952301 26.127178
87.502243 93.563377 29.483831
80.625816 192.99101 -1.7499123
98.544746 53.842182 34.339226
104.23016 163.85764 6.0563507
87.488541 98.279556 7.0635309
105.17919 135.07018 20.607536
112.88195 56.996052 46.109627
69.85556 92.570084 8.5933809
120.78165 183.30583 -13.43359
100.76003 194.44693 -12.744785
94.904503 91.716339 27.570906
89.364731 190.41895 -17.625149
135 129.00302 29.541094
83.065826 116.624 40.535591
122.40334 58.614441 17.691767
75.481247 119.6928 40.793266
108.35763 93.042175 28.965221
135 106.58963 36.576302
65 72.638046 49.884491
87.090988 133.71976 38.919029
90 68.508545 73.593979
64.999992 177.8172 -8.8376255
135 144.77905 24.840631
116.63494 115.56109 24.096685
115.57346 86.521858 10.213997
130.75784 160.52362 -9.6147137
120.62448 179.91286 -13.37702
116.77547 52.83432 30.577827
89.170403 57.642223 48.521172
87.534134 64.142822 72.781754
105.4152 102.36836 15.34972
127.25433 55.400192 40.153801
75.852997 102.25977 35.91674
65.528656 126.85535 40.47353
83.306984 105.51782 18.754494
65.445755 145.40056 2.5585861
120.96275 72.350029 76.127892
89.302986 156.04608 -8.4149609
92.410767 128.79623 40.156845
86.312012 137.30936 37.562576
111.8165 76.668976 74.970634
135 77.485794 25.733976
117.16367 53.65852 33.65379
114.40747 125.51859 24.492105
76.205078 52.913578 30.873627
104.43803 145.10205 -5.4825191
119.93888 100.79579 12.989486
112.99973 171.7569 -12.624664
65 65.627876 35.337856
96.413712 189.03893 -0.69095612
122.30881 136.64011 19.431574
114.60325 145.24266 -2.4017467
135 154.91513 -7.2176743
100.13769 160.31779 10.342226
135 131.86974 34.298889
128.82669 111.4358 22.630306
93.284767 196.83046 -3.8493118
79.04274 124.41808 40.726364
108.57878 162.40068 6.4467411
94.075241 137.93665 18.293161
135 147.63675 1.9550495
129.86993 51.742733 26.503973
121.13908 151.68359 27.050421
135 99.855347 28.97966
71.364471 89.660782 9.3729267
65.71109 62.264004 65.769897
65 105.84704 28.816713
101.51296 176.09895 2.7762985
120.86124 77.812561 12.547647
120.61243 144.92886 -4.1867561
65 79.316933 68.918846
94.821144 155.40234 -8.2424755
71.556694 178.85681 -14.527084
133.30008 58.980091 53.514168
110.4452 188.7139 -17.168282
127.12422 95.717903 7.7499247
120.92767 183.64514 -3.8227654
107.05544 177.38829 2.4308243
135 57.246967 40.433125
103.32162 192.37094 -1.5837669
116.45888 79.809036 69.429596
117.62859 131.60397 39.537804
116.93619 64.501442 74.120125
79.952538 187.59801 -3.1932335
72.116493 57.472504 47.887772
65 113.42409 37.593491
112.94732 158.00153 17.120646
108.91305 127.23173 40.429356
133.79199 82.070297 27.971207
87.721451 124.48921 40.72216
135 152.65335 -2.8778973
84.582726 147.57373 -6.1448021
122.90817 173.42776 3.4920444
116.31889 81.603355 28.096323
90.276245 70.745743 35.604923
65.712761 155.25766 22.253292
102.89878 194.43492 -2.1368065
135 175.99254 -10.16888
135 68.303139 74.39225
127.26236 61.300369 62.173557
65 147.89807 26.709482
65 61.150112 46.339184
135 176.27737 -4.2891083
65 73.483742 66.117142
135 151.88052 3.5142956
85.795769 71.699799 30.749973
75.003235 144.59122 7.2841187
64.999992 154.27985 6.2074871
134.68286 130.44513 23.0921
135 137.84872 18.495647
115.60139 72.734459 43.026901
113.22196 52.010223 27.502266
107.94096 82.223251 11.365805
134.9724 159.461 13.373306
117.05283 155.64218 21.63467
122.61617 58.031307 17.848019
87.069565 93.812119 8.2605762
86.229614 74.441299 49.396927
65 70.036621 69.105057
92.194695 177.54256 -14.174927
115.37873 73.439438 45.657917
72.62059 61.585182 63.236504
116.10825 158.58179 -9.0944023
135 55.23851 30.274645
129.25166 182.87401 0.96092987
100.25191 193.05338 -17.945511
65.613319 151.17755 -7.110445
67.982376 79.63018 68.762093
99.028961 55.737835 41.413895
135 97.46405 21.627743
80.70359 159.24664 13.989248
64.999992 188.9921 -9.0708771
83.200867 56.019463 42.464947
109.02414 90.276031 25.870787
72.627388 160.79671 8.1079655
105.74674 50.731182 22.728813
65 68.360367 56.122341
94.930801 145.24866 4.0562458
133.04446 126.44496 24.313469
126.97173 136.86725 19.250374
65.168594 140.1671 36.20459
65 104.87219 20.070755
135 151.74176 2.6935177
72.449669 122.09366 40.829903
127.86244 143.0101 11.411816
70.270096 134.48386 21.007177
110.07616 99.486633 34.239395
130.52707 57.462727 47.851284
92.661018 195.84554 -2.5147781
77.009308 137.50328 37.479038
99.196854 70.180153 31.15716
87.102814 181.48819 0.38804626
90.93689 156.8967 -8.642889
64.999992 165.26857 0.70224571
135 146.88655 20.987062
110.73189 150.38431 -6.8978958
131.25668 74.976257 51.39341
100.74355 145.11969 -5.4872456
97.136932 52.990589 31.161028
126.74 145.02823 5.4469547
129.19353 57.858868 49.3297
114.14454 80.471725 28.399542
81.994781 110.55256 22.20483
118.44978 180.61862 1.565258
113.32047 168.38072 -11.72002
65 142.4846 13.904305
66.346153 52.595921 29.688114
78.49472 52.49992 29.329824
135 173.36981 2.9497604
135 174.43576 -7.5823479
80.540047 135.67363 20.196215
129.89105 58.501038 51.726303
112.69141 110.7494 22.29965
126.09015 52.965725 19.205338
69.00827 70.568405 34.943081
67.705994 80.77372 73.029846
135 107.11661 35.711048
105.50883 80.467758 11.836187
85.867554 77.857948 62.148026
107.68494 61.70015 49.585377
74.284515 57.040066 18.113619
124.1595 134.00107 21.310436
103.21008 102.84828 15.951286
82.637344 115.38634 40.371601
105.30455 183.82538 -15.858402
88.94738 169.49039 -12.017353
99.096931 57.818157 46.949474
135 111.81245 38.376503
86.647598 74.032295 47.870499
64.999992 192.35431 -7.8828831
69.615044 180.18607 1.68116
73.8498 89.107117 9.5212784
67.455353 53.546551 19.049707
68.428307 81.744926 28.058388
135 65.828323 25.573029
117.09883 80.284592 11.885267
113.72668 55.938992 42.164623
128.88727 56.084923 42.709244
65 103.07909 31.432459
129.93909 56.196495 43.125645
65 69.2519 16.99258
101.8206 135.3765 20.39875
107.86314 62.114849 16.753836
114.11785 169.5108 4.5415897
125.71362 128.51303 40.206852
114.18031 189.77881 -17.453621
135 138.08839 22.531862
120.87769 83.243828 11.092342
119.74904 78.114014 63.103676
123.22688 79.160675 28.750837
109.99352 68.006027 54.401867
87.206818 187.80827 -5.9171257
70.748436 167.0025 -11.350729
86.245522 74.149033 48.306164
65 104.76643 30.948444
116.70247 126.61177 40.502113
98.976669 141.16376 35.650169
74.207573 119.87968 24.777851
69.632935 58.346169 17.763651
117.79651 110.86633 22.355978
77.574478 183.51584 -15.775467
96.223358 178.05887 -14.313274
129.62186 159.84938 12.093554
104.13855 76.170898 12.987529
78.308983 164.44724 -10.666044
70.087128 79.145676 66.953896
118.70874 78.31588 63.857063
84.150215 77.056755 74.86673
118.81148 101.20191 13.681376
102.97128 52.161343 19.42087
87.416275 158.59244 15.762659
135 116.5685 38.462959
112.94197 145.0972 33.109924
135 141.56628 28.311813
131.07304 168.12477 -11.651442
79.154221 144.93207 5.8688164
102.12061 85.090332 10.597573
120.64912 99.310013 10.00854
73.074951 116.21935 40.488892
96.253197 84.466576 27.329124
127.19836 178.64526 -14.470394
99.747948 136.82614 37.770748
113.50181 159.1936 -9.2583408
83.762589 140.58362 15.356003
105.3628 191.1013 -1.2435646
121.04945 64.444122 73.906219
65 58.16692 46.071228
88.236023 70.925156 36.27449
116.1091 149.582 29.304501
108.57961 117.44198 24.492647
69.479881 55.575386 40.807625
130.40836 196.69003 -4.3733826
117.32382 145.32822 3.5254726
107.50214 162.92915 6.3051357
84.258354 95.645264 31.36581
135 94.572067 21.812679
64.999992 182.69411 -2.3074226
125.42387 99.018906 9.2666359
119.83025 194.29834 -13.299362
65 142.62479 27.809908
135 63.230721 54.038124
68.102524 113.23282 23.374897
65.130005 72.912178 43.690178
99.078705 84.098579 27.427729
68.503288 110.74353 22.296825
85.306297 75.972443 75.157272
98.547302 55.949673 42.204483
128.22217 169.3167 -11.970814
92.319763 140.94681 14.867222
78.241928 52.842812 30.609516
82.27198 94.606468 8.0477324
90.325905 134.33673 21.107458
84.415359 75.209221 13.245209
131.30824 181.6837 1.2798729
113.05217 84.909332 27.210487
83.183182 96.492256 32.07122
135 176.46732 -6.4684639
135 60.804787 46.485001
79.276009 193.22557 -17.302938
103.90131 136.08736 38.079536
132.19626 158.90459 14.918434
112.9035 66.193665 77.777481
81.455109 52.472416 29.22718
111.44277 64.592194 74.458817
109.58698 82.966385 27.7311
70.075882 55.634651 41.028801
67.347366 53.861809 34.412468
91.923859 91.708023 27.561581
100.99158 89.987564 9.2853632
79.178467 175.48206 -13.622818
102.64406 89.84713 9.3229923
65 146.89148 26.321066
93.636673 165.62717 5.5822086
98.066116 148.74165 30.094185
124.91975 59.928623 17.339634
71.741394 174.66821 3.159668
132.90051 51.662159 19.554623
126.35606 134.4682 38.668419
92.202934 150.03998 28.835789
135 52.964489 23.078213
119.52363 185.55727 -16.322464
109.04112 118.14956 40.705299
135 95.749619 14.022482
70.238167 196.56245 -4.8495445
121.33836 74.328918 48.977528
96.865044 141.54404 35.431007
135 113.44182 33.058815
104.43832 107.97258 20.665989
108.17809 161.64203 -9.9143963
96.572128 136.53539 37.896004
99.067894 171.005 4.141222
121.995 98.682961 8.310338
93.545105 161.71066 -9.9327831
65 117.38951 30.241243
115.99512 64.182343 72.929245
99.687981 188.88054 -0.64851379
135 187.103 -0.8905983
78.097961 76.963409 58.809574
74.920013 79.673218 68.922722
74.133179 171.14841 -12.46162
80.709457 118.2261 24.610977
64.999992 150.31209 -6.0534725
75.970261 74.239723 48.644646
90.81057 160.26935 10.543158
115.59631 57.295677 47.227844
106.35563 145.26337 -2.2645187
135 154.4939 20.423044
108.48616 70.352867 48.434059
108.24679 74.569656 13.416579
73.627151 87.280594 10.010694
120.19257 132.2724 22.268438
119.02948 168.7782 -11.826523
72.459846 62.373066 66.176918
78.517578 80.955704 28.269859
131.756 81.330872 28.169334
65 68.221245 68.525703
135 142.79849 27.080297
82.933037 173.96773 3.3473625
100.79758 108.34662 38.615295
90.485275 64.447792 52.336884
115.81638 70.789703 14.429416
111.75338 150.79897 -7.0090027
74.132843 166.5938 5.3231983
93.543076 120.4635 40.831177
65 103.75676 28.841755
135 189.5925 -3.529171
128.56625 82.708954 11.235662
75.407898 70.799683 35.806221
85.547462 86.798424 10.139892
82.403557 76.381104 75.047768
112.70221 136.20496 19.778723
67.21875 106.10764 19.264627
88.407425 98.802765 33.792717
75.855667 128.6566 40.181496
115.08638 158.1808 16.708677
134.23604 145.22153 -2.541996
129.57764 193.45009 -16.46505
127.81409 119.52553 24.751356
99.253105 65.43734 15.863577
119.44678 175.99973 2.802887
99.124077 66.124954 15.679331
65 56.564674 28.110106
99.042648 115.65346 24.117743
120.86938 70.276344 31.131386
107.54728 121.42448 24.830193
79.065994 181.81163 -10.811506
87.842987 56.688705 44.962597
71.237663 154.86899 -8.0995617
72.880165 196.56371 -4.8448639
105.67262 60.761536 17.116455
83.430893 152.24263 -7.3958321
83.802605 178.52637 2.1258812
74.188408 82.994354 27.723606
92.706177 168.40948 -11.727726
123.0348 76.195839 75.097412
76.603218 90.202866 9.2276735
65 62.687511 27.536043
82.033676 129.73337 39.98167
65 111.5578 31.631863
82.565758 64.125473 16.215092
103.76289 154.60925 -8.0299683
135 104.66504 34.475807
124.45764 113.6857 40.074261
93.836609 120.82792 24.830189
85.545372 151.2739 -7.1362629
104.9296 58.057144 48.179264
92.124619 65.390106 15.876233
102.43098 70.953857 14.38543
85.856606 170.56157 4.2600365
135 66.663376 17.457594
131.06267 171.30521 -12.503633
65.860138 66.039604 77.818764
80.110672 81.715691 11.501806
118.05075 50.620029 22.31398
82.934204 67.522552 15.304845
126.85239 161.58603 6.6650276
135 189.13882 -12.288614
104.67164 120.71179 40.830982
91.920692 125.06601 24.56041
128.09808 178.35205 2.1725845
104.42207 52.265827 28.456182
135 75.506142 62.820034
80.957436 155.46503 21.93943
79.87355 130.58141 23.038651
66.581421 126.32961 40.535229
123.6002 80.719795 11.768655
104.35674 147.63094 -6.1601315
126.50103 171.9019 3.900898
66.438873 175.57957 -13.648947
70.64447 76.381706 56.638638
93.520897 74.944763 29.880486
135 61.505081 62.485733
104.67622 193.01038 -18.106028
65 117.09712 37.435146
135 115.78828 32.2491
87.886261 59.664108 56.066948
75.527077 72.883514 13.86838
93.031921 158.8277 15.127312
92.177277 179.39203 1.8939247
101.69593 150.61642 28.227173
101.09701 55.369213 40.038177
67.335251 76.01123 29.594728
109.56997 103.44894 16.676027
70.126122 173.72212 3.4131699
135 69.652115 29.296526
97.713707 59.440125 46.750736
124.17754 134.6734 20.877989
93.551003 194.23663 -13.529644
80.351257 74.387497 13.465389
106.04413 124.30768 40.732903
130.50005 196.1994 -6.2044792
117.47956 57.902378 49.492088
133.50995 114.72421 23.862068
81.254799 76.174202 55.864216
69.227287 156.16034 20.743254
135 72.802414 69.836166
123.55858 66.516968 77.690857
122.83688 105.27283 37.402447
135 58.638214 25.307199
65 63.921589 44.566246
109.34006 153.58762 -7.756218
68.951027 96.001732 31.662693
99.732643 190.92615 -1.1966362
122.84911 58.314651 51.030708
114.02308 138.19609 37.180576
96.460403 103.15486 16.335575
77.38588 101.13023 13.568744
124.07108 141.30466 14.342239
87.738655 70.836754 35.94458
94.419891 182.92 0.9486084
96.678741 63.117943 46.078678
116.97626 132.05911 39.415714
73.238342 96.418213 7.5622768
132.09119 145.66693 32.687057
91.99881 119.83916 24.77482
106.32954 169.64986 4.5043335
131.28851 71.277733 37.590324
124.37813 52.653435 29.902758
77.469818 100.10043 11.730572
75.944939 80.298607 71.256706
135 92.608101 23.583252
64.999992 165.7001 -8.4608727
89.396919 55.536091 40.660973
135 63.417786 39.537258
75.656204 79.989235 74.080971
119.92731 119.2966 40.770679
107.54881 160.92477 7.4006195
135 59.606697 42.633224
132.64246 194.43004 -12.807829
79.133621 70.796806 35.795502
129.68846 101.2616 13.768948
100.56742 135.53294 20.292112
100.29912 178.79861 -14.511486
132.31479 54.09943 35.299282
108.21353 60.816948 17.101608
65.33445 186.58841 -0.034339905
78.08699 52.67701 29.990738
77.077217 182.84085 0.9698143
84.420586 77.90741 29.086649
99.002022 70.762177 14.43679
135 73.332451 60.879017
131.2684 91.270752 8.9415321
111.06678 51.968605 27.346933
110.03194 179.75311 -14.767246
120.98271 184.99683 -0.47093964
80.883301 131.50922 39.560287
133.15526 107.18184 20.121601
85.453926 196.09355 -6.5995216
107.23503 186.37137 0.02381134
70.179649 165.08447 -10.83679
135 100.93142 29.593884
92.91143 166.10933 5.4530144
69.071663 145.44624 -0.25340462
112.414 62.467808 16.659262
100.61241 77.350098 12.671562
65 62.350105 42.032135
65 114.32665 34.511341
97.520279 132.61542 22.103205
135 110.33822 32.634441
77.018639 150.66248 -6.9724331
105.50546 122.55685 24.81679
93.727066 52.883297 30.760618
90.32708 122.84959 24.794888
91.302956 78.025742 12.490524
65 69.503235 35.77248
78.280724 58.454105 51.551155
76.991562 56.730995 45.120415
121.67537 55.977512 42.308388
129.95418 82.569649 27.837404
65 85.519104 22.754642
135 156.54121 -3.8431435
71.535393 85.755241 10.419412
130.14903 167.30531 -11.431866
71.765778 74.172493 75.639565
110 73.925507 72.416359
90.23835 64.237823 53.321205
135 173.79025 -2.8481884
123.03279 98.462082 7.5955677
80.359367 70.644119 35.225655
114.72781 122.2072 24.830194
75.205673 51.149353 24.28944
106.68945 118.42105 24.640394
114.34488 54.92865 38.393982
129.45708 102.40747 36.001427
124.24013 145.37662 -1.1846333
70.011726 96.762222 32.296062
79.194038 156.73833 19.72139
78.565521 55.755753 41.480766
70.259956 195.6033 -2.4498711
129.45328 149.88708 28.997198
119.99107 157.47487 -8.7978077
73.137573 54.162945 35.536327
84.373978 80.969589 28.26614
123.32389 187.86812 -16.94165
100.98826 70.127205 31.171347
135 81.381866 26.228022
90.376205 102.037 14.906539
111.94006 79.183403 12.18033
126.46634 107.58905 38.341434
108.04853 88.268112 9.746089
125.60896 168.61963 -11.784039
135 77.535072 18.793818
112.84758 173.68935 -13.142464
91.605606 67.165382 15.400549
135 167.54248 -4.3211975
135 100.83168 18.03713
82.018997 153.12851 25.286549
100.94803 54.664242 37.407188
135 150.13715 9.9897442
68.825943 145.23773 -2.4345303
124.61759 160.01529 11.546892
108.92419 50.686634 19.816017
107.50397 153.00357 -7.5997257
65 93.574875 21.393835
77.144547 78.016541 62.739914
65 141.87593 15.769394
100.9799 124.17023 24.695593
79.758873 129.71973 23.376644
129.48892 52.547985 29.509205
72.641975 74.755539 13.366774
68.386086 160.45251 9.7836018
116.17303 56.132824 42.888008
119.1041 52.92593 30.91972
112.29665 57.609215 17.961117
90 75.436981 60.978146
94.401199 85.897545 26.945698
66.169464 77.572487 74.728539
121.16542 74.937508 51.248802
120.55547 72.03054 40.399841
101.12065 105.41084 18.655277
125.26295 154.78134 -8.0760784
88.94561 183.8699 -8.3105049
96.077934 141.03644 14.735729
115.16824 58.96104 53.443066
82.428589 187.05325 -12.295717
120.64628 115.10614 23.979994
124.91688 183.85881 -15.867359
102.64948 131.55281 39.549946
64.999992 154.57477 5.4136086
89.22625 145.03937 5.3981094
70.073318 103.17354 36.397629
108.65979 152.10263 -7.3583183
99.307823 105.49264 18.731134
126.34267 144.55692 33.51091
127.93965 153.7941 24.397438
135 153.82643 -4.8812943
118.00944 74.734039 50.489449
116.23918 125.90948 40.584541
92.392929 63.23555 49.081444
116.61539 168.64137 -11.789864
72.569519 72.151154 40.849991
135 194.36168 -6.8988914
79.194397 152.67767 25.870935
135 168.90263 -5.9365196
65.099762 54.04269 18.916767
107.34425 54.120243 18.895985
90 76.797432 65.959877
79.640121 80.352623 11.86704
76.675514 145.36526 -1.3366013
75.70887 141.89325 35.229752
65 149.37772 12.104401
125.71222 80.488647 71.96595
90 61.225819 57.33297
88.955322 185.84711 -0.70730209
135 63.628479 18.025856
82.16185 131.56456 22.609428
67.020264 145.43964 -0.3417244
117.01012 151.32649 27.474106
135 192.25806 -7.4208832
113.90449 75.602615 29.704214
120.98271 185.00389 -1.1116905
85.271957 85.434586 10.505331
124.02809 78.438957 64.316399
122.88172 103.48111 16.710711
70.156685 187.20503 -16.763977
88.866203 50.446487 21.666315
135 191.32901 -4.3919945
81.394531 145.19955 4.3815956
124.95061 53.561897 33.293186
83.45089 196.58139 -2.7119522
110.66467 61.164253 61.665565
105.81128 176.67941 2.6207657
86.349487 79.213745 67.207924
92.564209 64.680389 16.066402
84.597389 50.599232 22.236366
82.813965 79.653893 74.17083
91.891281 143.44615 34.254654
68.072136 145.20346 -2.6617031
78.452805 64.600067 74.48822
92.001244 71.814499 47.311516
78.385857 77.126808 59.419376
116.88899 142.14502 13.017529
71.032921 62.782459 67.704788
89.477287 71.660652 39.019402
135 77.73671 23.903854
65 56.932007 34.867153
129.34138 121.65659 24.830191
73.567566 116.63765 40.537163
71.592171 194.73627 -11.664995
112.49062 57.378304 47.536209
110.62971 71.148361 14.333313
129.53674 69.814774 14.690648
111.07072 180.99043 -13.767048
116.6553 79.384247 67.844261
135 126.64829 24.466755
107.35336 55.609039 40.93322
133.52423 87.877289 26.415226
76.392464 169.91522 -12.131191
135 122.01976 32.305611
135 159.84525 3.5558834
135 120.72417 38.95163
135 187.13287 -8.4133091
107.01983 55.083855 38.973206
102.48346 140.03197 16.047497
73.062393 77.003937 74.880882
67.01812 57.411964 47.661835
127.39289 197.07367 -2.9416618
107.64757 87.032196 10.077251
124.54074 168.90108 4.7049656
131.95854 152.08911 -7.3546982
97.964706 56.355919 43.720612
126.40903 161.22707 -9.8032055
84.233063 62.087559 16.761148
115.49041 97.681122 32.977032
86.823257 157.51755 18.181995
113.21844 185.65392 -15.171047
87.28511 77.205795 59.714169
65.559967 64.986237 75.929413
116.41105 78.644211 65.082397
89.827156 79.568138 12.077241
78.077866 146.55652 -5.8722401
100.03214 59.742203 17.389584
96.695679 162.34976 -10.104029
121.19737 156.98608 -8.6668377
93.123665 162.32727 -10.098005
125.26563 126.18217 40.552528
109.94916 66.752342 53.957188
135 144.97862 12.052921
73.645988 89.764038 9.3452587
65 146.34198 24.262255
135 90.908539 21.699951
127.1606 98.010033 33.220287
95.038139 190.40543 -17.621521
112.01001 99.676308 34.363277
64.999992 186.67291 -3.1974678
127.72205 52.196758 28.198421
65 63.192364 22.930237
128.77524 193.28477 -1.8286247
90 67.599518 76.561478
64.999992 180.27997 -12.675468
65.339294 75.789444 29.654156
82.231895 187.2084 -11.420292
78.42099 142.92686 11.584591
135 147.2829 7.5165424
87.825706 136.55984 37.88546
82.610603 75.710648 54.13419
101.95108 155.09244 -8.1594353
90.25898 171.69077 3.9574718
120.94035 185.36136 -2.86586
91.312576 69.814362 31.255173
115.3688 146.58093 -5.8787861
105.64751 164.51994 5.8788872
65 57.865288 20.788349
74.520851 74.391289 75.58094
107.84464 186.14816 0.083625793
135 170.15308 2.6027603
114.77951 105.42625 18.669561
135 74.59288 74.59169
79.221733 59.671303 56.0938
128.00677 130.30295 39.846512
90.946594 189.80144 -0.89526749
78.261192 154.39606 23.556196
76.024101 77.255394 59.899284
84.997986 78.157967 63.267715
65 74.995972 51.476627
78.313927 167.25311 -11.417879
135 102.33318 28.385887
130.93298 96.78067 7.4651537
98.454453 126.24834 24.358299
90.952881 131.73093 39.507683
64.999992 151.77856 1.3547764
83.967926 98.860352 8.8625689
126.65565 143.04108 11.347525
120.64359 125.50356 40.632172
117.54556 54.413933 36.47303
123.78353 84.297646 10.809973
120.70487 104.93034 18.209669
105.35334 143.54338 34.190887
89.027336 180.92259 1.4838142
119.57056 64.653343 74.687035
102.75059 93.158203 8.4357939
99.697113 66.148643 44.678543
118.19885 75.860641 54.693977
70.607445 155.95549 21.095661
66.397232 72.284462 41.347488
88.493332 182.80344 -1.4655457
84.673576 100.168 34.684429
128.68158 77.151711 74.841286
133.33707 93.238876 8.414175
107.14465 145.09549 -3.3777122
67.244072 163.08426 6.2635784
65 96.992737 7.8279819
85.326981 92.44606 28.338314
126.4958 159.4655 13.358526
128.71674 85.978912 10.359479
105.66183 106.0914 19.251667
95.973526 130.16541 39.87915
129.70703 71.311142 37.715027
86.336868 138.65248 36.963497
65 148.91302 19.263702
105.44191 194.79414 -11.448963
103.38779 127.91604 23.959869
116.92411 191.1774 -17.828373
65 73.892754 51.113255
130.27892 182.54211 -15.514553
110 75.230003 61.630333
65 92.969444 15.515873
86.591278 88.00589 26.380768
105.49198 53.227615 32.045624
90.665726 182.882 -15.605629
95.785965 52.159252 28.058437
70.784187 68.195274 77.241158
130.18156 188.83432 -17.200546
92.159073 155.4003 -8.2419262
112.00385 65.316086 77.160423
87.047958 70.788177 35.76329
65.024956 194.56883 -2.1726913
93.68045 180.00711 -14.835304
73.268738 51.052643 23.92852
65 127.8709 33.948387
66.511299 194.24158 -13.511141
135 168.66348 -9.0373631
80.164955 184.91896 -14.245008
107.51019 71.719521 39.239113
73.822899 152.69366 -7.5166874
97.761902 83.060486 11.141468
84.79216 73.793037 46.977585
98.335396 168.32416 -11.704865
72.132172 166.12878 -11.116615
112.93586 142.84282 11.759068
106.18044 163.41411 -10.389221
110.45364 159.72089 12.516964
127.54167 73.96312 75.695663
123.00958 170.45265 -12.275192
70.817192 188.94951 -17.231411
126.8947 60.388012 58.7686
135 65.841515 36.409924
110.57284 72.598167 42.518272
79.160599 184.91443 -6.7798233
98.823143 153.08871 25.339733
110.38119 51.795124 26.699501
111.53189 123.20181 40.79834
65 145.43388 21.78616
99.665901 82.764328 11.220823
65 66.929222 48.011448
69.167778 72.98465 30.405697
117.79568 114.43988 40.20612
123.33177 139.50253 16.681986
120.08398 142.98361 11.466806
131.96118 130.97247 22.885248
101.17638 54.509079 36.828117
130.08072 95.416077 31.174931
111.36913 130.375 23.11961
134.19751 106.66679 37.999382
94.659271 80.992882 28.259899
91.86335 121.20123 40.830597
108.37321 145.20239 -2.6688595
135 157.13849 -3.1158485
72.235367 56.960136 45.975586
101.46525 143.86844 9.4438076
88.819565 100.91866 13.202292
78.534729 77.658981 61.405472
106.96563 193.22514 -1.8126526
129.64154 119.90424 40.805313
126.00235 107.828 20.567444
133.06906 180.26596 1.6597557
121.99895 108.41299 20.966166
126.39431 116.37437 24.282089
98.344841 58.724529 17.66227
65 85.41156 14.143722
92.962044 151.13144 -7.0980873
74.24511 79.118408 66.852119
110 73.566788 53.699001
135 93.857666 14.352563
97.669556 78.832611 12.274325
116.19246 78.017303 62.74276
77.655769 164.16734 5.9733677
64.999992 179.99004 -4.3571663
85.596153 145.42003 -0.60393333
135 126.61417 35.240707
64.999992 174.10547 -11.534657
133.66547 75.435928 53.10894
95.537308 66.208977 15.656818
91.549126 154.40256 -7.9745808
65 71.437279 14.963127
76.700943 146.79141 -5.9351845
125.61464 56.183357 43.076614
75.1614 193.24864 -1.8189468
91.002701 194.98053 -10.753391
103.66544 137.34251 18.844143
106.74718 102.3565 15.334834
77.486244 151.23734 27.571596
88.612282 59.207462 17.532867
64.999992 173.85071 -9.6099415
121.50988 71.986382 14.108767
74.858398 83.309647 11.074707
115.3768 103.02136 36.321686
83.390289 102.5166 36.064011
88.127304 195.35445 -9.3578949
77.511597 60.482334 59.120617
68.845459 110.05821 21.946831
131.00909 77.089249 59.279221
105.32816 103.42331 16.648382
101.5628 113.91331 23.61171
87.62162 120.09718 40.816315
67.674164 87.910187 9.8419981
65 70.368095 30.133936
135 146.21469 10.899349
131.46495 128.60979 40.189766
135 96.81456 21.654396
70.694946 174.18799 3.2883415
76.661514 155.69264 21.547831
71.950272 69.827728 76.803741
69.271713 119.24493 40.767735
121.87176 78.617401 64.982346
65 59.851948 26.557018
127.05699 110.05871 21.947121
116.17945 51.942188 27.248348
85.760933 172.7645 -12.89465
103.64862 100.88565 13.14513
71.407425 78.024712 74.607368
106.55955 195.18256 -9.9994164
64.999992 158.50015 7.8683205
65 139.95424 23.0401
64.999992 179.99344 -7.7240658
135 69.251694 76.264099
135 125.6335 26.655565
130.27773 72.941605 43.799995
72.867836 55.461575 40.382874
73.508942 71.206169 37.323242
107.68216 134.18048 38.773064
123.84613 186.20845 -16.496948
64.999992 174.88602 -4.1446857
100.82041 194.90495 -11.035408
108.26926 147.54041 -6.1358776
135 62.912903 42.484257
87.423248 111.38663 22.606625
110.78355 59.226067 54.432156
70.619949 78.685745 65.237419
110.53102 149.32239 -6.6133575
76.345398 80.276993 11.887305
65 137.76306 28.035629
64.999992 157.23248 15.741396
84.692497 144.70168 6.8793926
82.277298 131.40941 39.583969
65 115.72221 27.442169
123.2939 193.29086 -17.059235
91.303673 153.83479 -7.8224506
93.285378 103.16183 16.344318
65 87.747749 24.448315
105.52676 167.59363 5.055294
135 75.537201 25.676266
85.434128 103.65311 36.63699
118.99516 187.18674 -8.910717
94.915024 132.20372 22.301529
65 75.066391 29.614716
65 150.87463 14.109987
98.422546 156.59955 19.987659
126.02572 182.09734 -15.395374
124.7435 75.842331 75.192131
65 80.427109 13.763001
112.44067 73.047997 30.388725
75.906639 150.36465 28.49297
115.79912 150.63177 -6.9642048
121.54452 123.01575 40.809349
68.621651 74.51992 49.690338
113.50533 134.80405 20.788929
110.66334 156.26819 -8.474474
128.81848 99.354263 10.121306
96.056252 165.26711 5.6786861
111.8769 102.29251 15.254631
76.866089 100.01888 11.561287
83.313667 82.788177 11.214433
125.50983 56.511894 44.302734
74.093941 108.45621 38.654915
127.77579 150.22452 -6.8550777
96.578545 118.23837 24.612829
135 162.79514 2.6863441
85.818565 73.905426 75.711121
106.0655 176.67706 -13.943024
135 137.19676 28.952024
114.57887 78.033775 74.604935
118.6394 170.6682 4.2314663
95.277405 99.840897 11.191868
72.435425 196.21028 -2.6125145
135 70.297447 53.363979
64.999992 161.80095 0.54701233
135 74.411682 27.890779
135 146.87453 -1.4761372
106.4496 166.79024 5.2705631
75.310196 149.2123 29.651909
73.393471 59.751427 56.39283
123.82932 158.3317 16.361908
114.07799 99.883148 11.279572
75.517197 70.628891 35.168808
81.748657 88.164619 26.338238
76.374023 57.50396 48.005165
115.57259 71.241386 37.454693
65 127.37813 32.83905
107.86209 151.46825 27.305914
121.77293 73.913933 75.708847
65 128.64532 33.292889
109.85687 55.519848 18.52096
135 150.94585 -5.0048485
96.841476 99.356781 10.127739
77.090332 69.254524 76.957329
79.388176 186.06763 -5.0402298
65 53.641777 28.673262
82.266983 65.339867 15.889694
83.285858 94.817146 7.9912806
81.733543 195.79703 -7.7061596
104.84969 145.20233 33.031883
90.178078 173.75081 -13.158932
123.22787 144.64127 7.1220608
90.214844 134.89635 20.726019
83.657768 63.138371 69.033081
89.07579 81.847771 28.03083
98.955872 133.17712 39.081322
134.74738 187.86887 -0.37744141
73.321671 70.477333 34.603188
107.15881 193.71097 -15.491453
135 80.778473 14.67049
65 67.794548 48.700912
65.939583 54.087345 18.9048
81.54995 159.91913 11.863758
135 133.75809 25.118572
126.90917 167.95087 -11.604839
89.888954 154.22368 23.816854
115.23541 78.768181 28.856005
110.93369 186.25153 -16.508488
135 68.181206 34.648594
126.05473 60.734329 60.061066
81.47551 144.97614 -3.9791641
80.966606 151.66112 27.07708
71.503708 70.236725 31.142002
135 133.13235 23.980083
135 57.753372 35.988445
135 62.476849 65.72831
108.02119 109.88405 39.113014
127.32947 54.890457 38.251446
119.42673 98.674667 8.2835026
70.085838 142.46313 34.899452
123.95261 117.34815 24.478485
115.02351 117.44289 24.492781
80.143204 76.490036 29.466431
132.00143 155.54263 21.805922
74.604301 156.3203 20.468071
92.309395 162.93463 -10.260746
65 104.75682 30.17532
135 68.151306 18.092255
121.36885 108.20675 38.564735
64.999992 186.56396 -9.898386
115.12872 97.727386 7.211484
110.49895 59.289494 17.510887
65 63.424088 45.86882
64.999992 152.63844 9.9699631
126.25179 53.963051 34.790306
90 65.317284 57.961517
80.597435 178.75691 -10.871689
66.719948 191.68578 -1.400177
88.402695 63.073311 68.790268
117.32664 174.65843 3.1622849
135 67.37571 64.257927
103.57909 195.89021 -7.3583832
133.66278 141.88226 35.236084
72.555656 159.56734 -9.3584824
111.33101 136.95673 37.714485
85.843369 166.47171 -11.208502
69.769104 74.501244 49.620655
64.999992 183.68343 -10.392513
65 122.2299 32.437218
88.526871 77.178841 12.717452
111.67833 106.61522 37.977295
88.902763 95.961487 7.6846561
135 66.887299 77.561661
65.997879 80.810295 73.166367
97.85408 56.107792 18.363422
114.37313 58.168705 50.486023
72.07959 179.27307 -14.638618
89.819664 185.64952 0.21723175
107.60825 188.06084 -0.42887497
125.15817 87.045677 10.073641
85.04393 133.57019 21.559208
88.076912 194.71408 -11.747797
84.394363 65.034729 76.110374
65 80.648392 72.623734
73.046417 149.99341 -6.7931519
128.39919 147.05713 -6.006382
98.941956 158.62389 -9.1056862
65 68.004715 47.368206
81.540619 180.9032 1.489006
105.02003 113.32718 23.411913
119.55418 103.85538 17.114286
65 106.5563 29.046408
114.73154 153.80811 -7.8153019
121.49385 68.09185 77.268867
116.99937 84.963974 27.195847
65 61.391277 55.166046
72.177208 158.79771 15.208736
83.845924 62.419548 66.350403
74.745209 148.81461 30.025629
65 57.828423 34.773701
135 71.223694 23.07106
65 135.29903 34.651772
64.999992 155.67868 3.5782299
99.038139 136.57181 19.486063
114.19334 60.207932 58.096531
78.950111 149.77039 -6.7333927
101.7516 188.75087 -17.178185
83.370834 124.13924 24.698404
135 171.38774 -4.8169136
116.48068 122.59635 24.813837
90 66.685471 61.51133
65 102.75996 28.746391
135 144.49716 14.609098
65 105.20345 31.700235
65 134.65463 21.623426
88.486877 70.001312 31.205082
79.022003 68.120872 77.261093
123.96613 109.84711 21.824947
132.41534 128.66934 23.727287
110 74.490189 63.077888
74.728973 153.83281 24.345722
135 86.949615 22.319653
78.185349 60.351303 58.631603
78.242264 106.25951 19.38578
116.19357 90.282898 9.2062273
65.521973 169.65265 4.503582
65 74.263397 16.218592
113.06024 108.22325 20.836838
128.93695 149.65453 29.236336
133.96068 196.66081 -4.4824409
123.03056 82.218422 11.367099
120.81747 182.76686 -4.9003563
86.807686 64.869537 75.493874
92.604279 54.304703 36.065376
105.82552 92.147148 8.7067051
120.71289 61.959297 64.632713
92.176094 76.474854 12.906085
114.41257 54.001755 34.934753
113.63663 89.741425 9.3513155
91.080521 113.05644 39.940186
100.59259 79.96286 11.971477
135 138.30646 30.962439
110.47684 73.74015 46.780209
64.999992 171.84854 -8.3111382
126.23686 53.629242 33.544518
98.405319 70.296753 33.929264
82.201591 190.57272 -1.1019363
135 149.56593 -5.7905293
135 87.566139 22.525696
125.00401 74.504341 49.632202
103.90662 186.75012 -16.64209
122.08066 53.353207 32.514343
129.31625 80.214912 70.944344
113.33378 130.09746 39.895275
80.474037 130.53021 23.058729
88.90757 166.65283 -11.257036
118.63288 72.653458 42.724621
94.489449 129.65007 40.001434
118.70751 54.243557 35.83717
119.36856 89.083038 26.092148
129.21017 196.35634 -2.6516495
65.81868 64.770752 75.125206
126.26932 128.9594 40.128033
135 69.749283 37.285458
99.948944 85.150101 27.145973
111.51658 98.671768 8.2741232
110 65.342102 60.946362
126.28769 91.646698 27.489182
80.838913 141.47516 35.470707
134.14468 192.05339 -1.4986801
112.83183 178.009 2.2645035
65 106.16542 25.044483
101.60091 109.95226 21.885654
131.32555 59.602161 55.835762
113.72572 113.34868 23.420345
70.647568 56.409538 43.920731
134.89603 98.892365 8.9441433
65 108.15928 36.058929
88.907234 180.60654 -14.691254
83.613579 195.98816 -6.9928226
135 167.12347 2.5759678
113.75224 136.4339 19.596088
83.98716 160.51459 9.5261688
66.630043 112.39554 39.784931
65.84388 106.06082 37.739891
67.831726 183.72139 0.73387527
133.09622 94.882828 7.9736786
100.73332 77.40863 29.220295
130.29826 70.858246 30.975468
75.778885 66.151123 15.672318
69.465218 130.37341 39.829796
130.33212 187.14421 -16.747684
120.76451 181.9879 -7.2107162
85.141731 69.654747 31.533264
73.850708 162.48114 -10.139233
75.833954 193.31647 -16.963737
71.776985 51.97303 27.363443
73.659851 147.20459 31.454653
112.38012 127.25002 24.12995
122.76063 195.3284 -2.3762169
65 88.923965 16.35556
105.11467 166.03694 5.4724083
80.369263 51.359165 25.072481
83.248451 92.313324 8.662179
83.36924 73.301491 13.756384
115.6533 124.22847 40.737579
65 89.84816 20.895319
73.59761 71.683868 39.106041
106.36436 96.290665 31.903332
130.1026 62.146488 16.745358
70.855637 53.743618 18.996901
131.43994 191.51521 -1.3544731
105.35207 186.89574 -16.681103
85.935417 174.00128 -13.226044
91.068016 137.0558 37.671814
121.40764 107.36198 38.25935
83.520958 112.78305 39.875961
72.728065 122.64221 40.829483
128.73485 147.77109 -6.1976852
65.815872 61.399761 16.945446
84.600166 144.84399 6.2551308
110 62.417294 66.228119
124.12273 74.975945 51.392258
100.71809 68.424408 44.085129
64.999992 160.30304 10.359673
64.999992 187.80212 -11.181284
126.18977 178.97498 -14.558743
112.50228 60.032291 57.441029
123.91291 177.78961 -14.241127
88.187309 127.2049 40.432503
123.44124 141.32732 35.555916
129.89812 195.16783 -10.054325
135 74.085571 62.119423
115.92225 71.655434 38.999916
127.92491 106.25928 37.824875
96.278084 74.953506 13.313728
69.343117 159.44693 13.419706
95.188049 145.42105 -0.59029388
110.8266 171.50085 -12.556057
135 191.14743 -9.4882221
131.80771 60.144714 57.860588
90.684196 55.437862 40.294376
89.567459 94.82402 30.664255
127.95368 175.30144 -13.574421
78.865402 115.49707 40.390961
67.720573 188.68285 -17.159956
127.40925 80.211113 70.930176
108.60841 79.989975 11.964211
125.21255 54.823792 18.707468
98.292557 77.918648 29.083635
135 61.951172 30.168716
69.281654 142.40683 34.933777
73.836487 72.488747 42.109886
121.02572 125.8514 24.441879
110 61.661728 60.293488
76.767799 125.29111 40.657104
78.984459 122.25238 40.829781
119.36217 77.666611 12.586754
135 72.293243 73.18148
119.37259 91.297989 27.077442
101.17063 158.48776 16.003241
104.31634 63.227757 46.475258
110 71.799744 70.703583
65 61.656647 42.461414
125.00883 62.781036 67.699486
120.16002 111.83388 39.652988
94.626129 114.76775 40.263443
72.061066 73.181656 44.695862
83.702934 179.88806 -1.4919281
135 93.76815 12.951406
86.900444 194.01544 -14.355104
123.53076 163.39586 6.1800823
116.32545 154.39857 23.552389
130.20413 75.78347 54.405972
134.38501 76.021866 29.591877
111.52195 110.89435 39.413338
66.577461 194.62749 -12.070951
75.080139 80.428505 71.741501
66.311264 78.834862 28.838137
74.393013 81.761673 11.489484
77.225151 161.44424 -9.8613949
72.07798 194.59871 -2.1806946
135 150.79871 6.2591629
64.999992 189.73898 -6.066618
103.97317 80.563438 28.374966
126.23883 54.754517 18.72603
111.21954 144.55066 7.4155464
80.54422 53.043072 19.184612
112.22362 137.28052 37.575005
97.48597 55.125397 39.128242
133.7598 100.79631 12.990378
65.191643 187.88153 -0.38083267
121.0615 94.908279 30.743156
64.999992 152.96317 5.2437038
78.336929 71.778442 39.459
124.39214 57.846382 49.283104
80.007225 133.14192 39.091858
65 61.139488 44.239532
116.46963 187.31444 -12.166403
130.19818 52.739822 30.225155
91.379143 87.224236 26.590212
114.68149 149.00626 -6.5286503
131.28954 180.42354 -14.946886
89.759842 174.18419 -13.275055
114.69984 106.3107 19.426624
95.95208 170.75058 4.2093945
69.393745 55.778984 41.567459
79.171059 74.078568 48.043201
66.505386 148.99837 29.85294
111.90685 51.724506 26.435946
110 64.42382 65.416252
135 87.984016 15.5577
65 85.015511 12.45612
99.698067 50.763176 22.848206
96.448006 166.83293 5.2591248
95.695488 89.002579 26.113705
70.296204 83.896217 27.481951
134.96063 195.92805 -7.217144
123.7751 116.6841 24.352699
117.11167 145.39801 -0.89847565
115.87712 95.965599 31.632599
88.872574 179.50359 1.8640327
88.952545 183.99701 -7.6761436
128.73369 58.183884 50.542671
94.701035 161.2179 -9.8007488
131.2253 62.55666 66.862099
106.2756 189.46538 -17.369637
82.203247 78.141243 29.023993
87.975777 92.542328 8.6008148
93.376434 115.4863 40.389076
135 155.24864 -4.413208
118.53433 95.196701 7.8895807
135 149.37967 28.984179
110 69.782784 56.948673
110.15456 84.9142 10.644768
135 105.21753 29.150682
90.402443 75.271408 29.792961
123.44308 50.279228 19.92518
69.519951 173.18501 3.5570869
84.982224 153.25797 25.113636
64.999992 183.63196 -1.5213356
79.017273 183.00948 -8.5224895
98.37146 71.384552 30.834442
87.966988 196.84889 -2.7836304
133.10739 123.23096 24.766357
65 67.972878 74.113205
135 182.17509 -5.7050476
135 97.828964 28.009399
100.73272 55.233273 39.530846
93.995049 157.12013 18.967094
76.873123 93.600616 29.518698
135 60.106556 42.170139
107.47189 70.201126 14.587125
103.40874 79.976639 11.967784
91.880226 98.365891 33.483475
112.47519 51.872803 19.498184
94.046387 148.5495 -6.4062595
129.01912 171.73174 3.9464931
135 88.15123 23.04945
95.985992 196.60884 -2.7193069
134.47124 143.75934 34.049225
100.83775 79.068108 28.775639
135 74.172028 27.148094
74.104828 56.361404 43.741089
96.513893 54.427578 18.813635
66.362915 136.00015 19.942122
135 169.01337 -2.3377171
102.30245 67.852631 15.2164
80.531677 111.31909 39.532059
81.627861 179.0845 -6.7106094
74.128502 178.19745 2.2140121
128.83717 67.012672 15.441467
102.31728 128.76646 23.697304
131.72267 64.481033 74.043968
75.250572 68.38562 77.190147
65 149.27463 16.544941
104.24454 143.86719 9.4469604
70.010048 76.100281 55.588333
135 126.71197 29.154781
135 71.296463 65.727783
83.480103 177.37401 -10.946304
74.608932 145.11487 4.9429131
134.12538 75.956299 13.045029
86.11615 174.99994 -13.493633
120.78645 58.185043 50.547001
102.29253 177.80927 -14.246391
97.582344 110.51157 22.185083
97.254936 53.869518 34.44125
107.27285 61.583729 49.15712
135 151.20261 14.596731
123.27122 66.445953 15.593319
89.766464 78.236336 63.560188
109.18373 50.862534 23.219025
135 110.05674 34.393532
124.46921 55.342556 18.568466
115.11825 71.029572 36.664181
121.65713 195.00165 -10.674562
78.378906 50.855347 23.192204
86.186287 169.73532 -12.082989
135 80.904175 23.192829
129.44894 159.69453 -9.3925648
74.662643 145.27101 -2.2137947
118.36214 149.62712 29.262094
108.53886 52.568039 29.584053
67.315392 94.029465 29.920261
119.32432 160.63211 9.0171642
91.713387 178.39296 -14.40279
109.64365 76.744408 29.398273
122.87531 146.70206 31.875093
97.32164 155.53259 21.823191
123.19819 57.792858 17.911911
135 157.44702 14.241516
120.83727 185.89706 -3.1363945
133.31259 87.159256 26.607624
135 67.719154 57.33419
117.32462 76.449509 75.029434
92.769753 99.308067 10.003574
121.98167 70.058128 33.038696
101.51115 57.857067 47.012714
92.318909 150.96429 27.859877
83.08429 179.61618 -2.7648659
118.74662 78.735161 74.417
108.14021 76.909363 29.354074
77.051224 156.75284 -8.6043377
113.55613 121.35931 40.830475
65 54.234314 25.389227
110 66.705948 71.033493
65 144.66342 27.174131
135 73.387924 16.627449
82.376839 155.23196 -8.1968193
120.61359 172.07025 -12.70863
117.3611 82.956131 27.733847
87.687096 50.612206 22.284786
131.17389 62.972801 68.415169
84.636002 127.50093 24.072744
100.0294 63.977592 45.260273
112.59909 122.07391 40.829926
66.448486 80.676132 72.665642
85.14959 178.09642 -8.6659184
65 149.85518 27.202261
102.9218 144.34727 8.074276
68.776176 196.18535 -6.2569275
103.3289 173.55298 -13.105923
80.22419 54.7258 37.636925
126.06952 145.31862 -5.5405502
74.476944 171.5739 3.9887848
67.012131 71.028732 30.929785
87.079185 104.01717 36.818695
65 58.07428 39.812824
135 122.22577 36.804413
110 74.403481 59.171139
135 70.986488 27.20747
113.07378 74.063652 47.987537
65 116.09597 36.57972
104.18014 105.07764 18.346281
76.51252 156.39502 -8.5084591
131.66232 98.295204 33.431194
135 152.71336 -3.5504913
135 58.167435 25.739384
81.976761 145.46132 0.52106476
69.311897 158.19492 -8.9907398
111.46555 177.30692 2.4526291
126.94873 110.58305 22.219521
67.48671 55.914803 42.074348
129.03178 176.08386 -13.784073
71.794609 62.163052 16.740921
69.534897 78.189468 29.01107
86.097549 63.823822 71.591209
121.14465 130.17876 39.875984
131.72731 78.538559 64.688095
135 72.390976 47.100662
84.478477 171.26869 4.0705662
126.78876 74.626709 13.401292
110 76.098434 73.863647
120.62362 178.45897 -14.420479
115.2477 168.73665 -11.815392
132.27994 71.542786 30.792044
99.919121 160.73372 8.4559307
116.411 132.88869 39.167595
113.03494 80.039513 70.289764
129.99083 98.765953 33.768669
77.415688 50.10178 20.379847
65 65.700478 42.733543
100.31236 176.87386 2.5686684
65.588379 93.460236 8.3548651
112.43425 185.86411 -11.895859
109.98225 61.485229 55.950806
92.908112 117.84328 24.553202
112.42914 76.421471 75.036949
