# .PCD v0.7 - Point Cloud Data file format
VERSION 0.7
FIELDS x y z
SIZE 4 4 4
TYPE F F F
COUNT 1 1 1
WIDTH 1471
HEIGHT 1
VIEWPOINT 0 0 0 1 0 0 0
POINTS 1471
DATA ascii
144.45767 15.999992 -17.66024
50.024956 12.382065 -35.000221
81.401375 34.287754 -35.000221
16.000134 48.934696 -19.523582
88.684464 37.188984 10.521767
79.772392 39.563976 19.675507
16.000122 18.851299 -10.788177
16.000145 56.408543 11.195213
34.056152 -0.0001335144 16.885178
42.007668 -0.00012969971 22.375595
117.41759 -9.1552734e-05 11.367966
33.378014 -0.00012969971 -16.488129
42.815933 24.93269 35.000031
35.422569 15.999943 -23.741005
0.00014877319 45.270725 -27.730942
95.624176 10.409836 -34.495468
133.30247 10.781864 -20.205956
132.43126 -8.392334e-05 30.815369
50.08931 1.9870186 -25.728523
33.977272 -0.0001335144 -11.993576
102.31532 9.197979 35.000046
135.85104 8.3378563 -11.017418
61.052399 23.727573 -35.000221
61.416542 20.417713 -33.804794
75.302109 39.962002 -10.513802
32.051239 -0.0001335144 29.500732
89.134537 29.877033 -35.000221
136.14069 -8.392334e-05 -34.859322
95.463928 10.713913 -4.1629181
23.603554 15.999943 -21.683968
91.830902 35.803295 25.830063
22.994423 -0.0001373291 4.9944763
2.8708191 -0.0001449585 1.81987
16.000126 43.970798 -30.994331
5.6422424 41.83466 35.000031
0.0001373291 25.860744 4.9753342
14.388138 60.000149 32.641403
0.00012969971 3.4025688 6.9978638
16.000145 42.77927 33.714005
148.00005 6.2728081 27.410439
0.00012969971 12.757477 13.942856
68.758934 23.416798 10.811394
111.46269 -9.5367432e-05 -19.649063
133.88586 9.0716515 20.521355
116.17485 -9.5367432e-05 -6.1207123
77.321762 39.845219 -30.013367
146.74582 -8.0108643e-05 13.981331
110.51541 -9.5367432e-05 11.196075
24.8209 -0.0001335144 -26.568687
4.9177246 25.854641 -35.000229
22.913559 11.645168 -35.000221
12.192295 -0.0001411438 -6.9797058
99.407242 25.797703 35.000046
0.00015258789 59.875271 -33.415947
98.963715 11.816612 35.000046
141.28142 -8.0108643e-05 12.638306
16.914383 11.855164 35.000031
81.207161 22.886959 32.263763
22.362556 -0.0001373291 23.882065
112.12404 -9.9182129e-05 6.3369522
15.955383 60.000149 -30.325073
49.957428 -0.00012588501 -15.078072
16.00013 39.124432 -21.01017
15.390648 25.49205 35.000031
84.820251 21.407772 -20.933121
16.000145 58.100803 20.22496
4.8297501 60.000149 -29.200607
16.000137 46.05537 -32.268356
109.5804 18.264751 -2.6941223
135.95445 -8.0108643e-05 32.91716
130.80458 15.999985 -17.02964
20.145508 15.999939 11.129204
28.684898 15.999943 11.370758
53.520546 34.343967 -11.771767
134.81009 -8.7738037e-05 5.254097
116.42941 15.999981 -12.598022
0.00012969971 7.1227531 -4.7038574
16.000122 29.009876 -19.65847
125.10086 7.0558548 -35.000229
125.75786 -9.1552734e-05 3.6090775
50.215157 3.1046791 32.259491
61.369026 20.387836 -16.753822
79.249115 23.415314 8.5102463
40.425781 -0.00012588501 4.6218109
0.00015258789 51.616261 -28.37471
71.534241 23.856735 -5.829361
16.00013 42.389889 -10.612595
95.074036 11.452129 27.504074
48.7117 30.978504 -14.87439
142.92892 4.2481804 35.000046
0.0001373291 24.61565 -0.80269623
47.899574 -0.00012588501 -28.974129
52.274879 33.57896 18.286362
53.97438 34.622677 31.508804
145.30914 16 26.17852
81.315292 22.849125 -30.796501
61.795998 38.076283 -12.001541
125.7157 -8.7738037e-05 -8.9486847
148.00003 11.213223 6.7584
112.6201 -9.5367432e-05 -3.1259308
59.846771 37.399029 33.720444
129.97331 15.999992 7.7200699
50.398354 4.2646942 2.0724335
28.419373 15.999943 -32.166443
0.00015258789 57.218273 18.123863
5.0768127 33.330166 8.8309097
148.00003 4.9344368 -21.781158
127.18822 -8.7738037e-05 -32.881844
0.0001411438 26.756374 32.151932
41.805359 16.909512 35.000031
44.1101 2.0300674 -35.000221
102.28705 28.257572 -0.79355621
0.0001373291 26.243656 -2.7201462
0.00012588501 4.2242546 11.096237
148.00002 6.3059044 31.526489
52.159294 17.30225 35.000031
0.0001449585 36.940304 24.210175
8.2206993 -0.0001449585 -4.2383499
73.944901 23.997925 -34.97908
66.014862 22.614769 -30.975098
10.437012 54.028027 9.9999466
95.531464 33.698025 -7.0671692
16.224182 15.999935 4.8938141
51.067062 7.0750923 19.650261
0.0001335144 10.615299 -7.6693268
47.252106 28.004208 35.000031
8.2647858 47.88921 9.9999466
0.00012588501 6.7044067 5.4994431
148.00002 0.71772385 9.1134186
97.694199 3.7767525 -15.497375
16.000122 23.701092 -4.3606491
0.0001373291 21.65871 -24.646172
1.5166321 4.0345802 35.000031
22.802078 -0.0001373291 -11.040688
50.612457 32.435352 -21.078316
140.92511 8.3683319 35.000046
125.00865 15.999989 -2.8280334
11.116302 32.108738 35.000031
16.00013 44.550594 -26.295746
148.00005 11.717297 -25.845016
141.44603 -8.392334e-05 -22.404076
0.0001449585 48.474773 20.967735
6.4750824 47.605793 35.000031
0.0001335144 21.102886 -16.779594
33.341721 2.1919022 -35.000221
39.565399 -0.00012969971 -24.985153
24.874893 11.107159 -35.000221
71.581612 31.815746 35.000031
16.00013 28.129749 -15.278259
114.79942 -9.1552734e-05 15.57254
148.00003 9.7780342 29.212997
53.758881 34.490337 -4.3608551
16.000122 18.744396 3.2672195
109.63565 18.163223 7.1882248
121.03688 15.999985 -2.9933548
13.20237 19.191525 35.000031
11.922394 46.778805 9.9999466
102.83904 21.817883 -35.000229
102.11841 -0.00010299683 7.0462875
95.840576 33.50819 22.243187
65.900337 22.574703 -2.3259277
29.051979 -0.0001335144 -2.8232956
118.64041 -9.5367432e-05 3.6260529
92.546982 15.215786 -0.89278412
50.587387 29.501263 35.000031
40.258888 -0.00012969971 11.17646
16.000137 47.707661 -33.514175
42.416519 24.522144 -5.60952
106.41223 12.174568 -35.000229
0.0001411438 39.307537 -14.882538
51.000221 6.8256187 4.1887741
137.97952 15.999992 11.322273
131.1993 2.6444588 -17.340225
46.46933 29.009304 -25.801407
115.27397 -9.1552734e-05 28.597427
119.51862 -9.5367432e-05 2.5644531
100.08966 2.0582123 35.000046
139.70381 11.258068 -12.666656
75.851143 25.770203 -35.000221
0.0001449585 55.261501 11.881828
53.864243 34.555035 28.680099
50.871483 6.3452034 2.4880295
4.1383247 23.239491 -35.000229
116.57777 14.069939 35.000046
27.586647 -0.0001335144 -30.046753
34.899231 -0.0001335144 -24.523987
45.819168 -0.00012588501 -30.980148
135.41154 15.999992 10.771729
117.40974 15.999989 12.407173
81.018875 32.126812 -35.000221
44.288216 26.755573 -19.669296
16.000134 40.875134 -23.047867
16.000145 48.052944 32.130051
11.918781 38.955959 9.9999466
69.059486 39.68539 13.844551
0.0001449585 41.183369 33.885193
127.46227 15.999989 21.792412
50.30793 3.7872696 20.893532
111.21323 -9.5367432e-05 -17.545815
132.08762 15.968586 19.106895
2.0699539 4.146862 -35.000229
130.7515 15.999989 -16.375633
0.00012588501 2.8439789 -27.897629
0.00012969971 9.6529503 -4.2178574
9.6427727 42.180386 35.000031
134.65869 11.35223 20.807518
7.5649223 7.7662926 -35.000229
34.725777 15.999947 -18.595703
11.416916 60.000149 -20.941757
22.978752 -0.0001373291 17.566742
76.421227 28.728355 35.000031
129.37431 5.8570518 -35.000229
109.90829 -9.9182129e-05 -15.313873
13.91325 28.834965 3.9938507
22.445808 11.124157 -35.000221
123.49043 13.162918 35.000046
58.902954 29.982124 -35.000221
38.872124 -0.00012969971 -25.757278
16.00013 35.672726 -27.230736
71.27153 39.896961 33.507507
98.79567 -9.9182129e-05 27.822464
88.720947 18.942883 2.1373978
0.0001373291 23.282734 20.950684
16.000137 51.703106 -20.642159
4.9282303 48.787472 -10.000137
12.569229 -0.0001411438 27.30899
16.000137 55.229778 -10.686333
23.66185 6.1616783 35.000031
23.426109 15.999939 -18.21167
0.0001449585 41.89819 26.679222
148.00003 14.633797 28.552963
88.180084 23.826645 -35.000221
14.676056 60.000149 28.925415
16.000137 27.677204 12.608871
139.43761 14.898296 12.377365
115.98685 15.999989 30.093079
0.00012969971 10.855209 24.432632
95.062042 11.474815 20.236885
16.064247 15.999935 -31.143562
42.263329 -0.00012969971 13.938873
104.75406 4.9643898 -35.000229
140.42871 15.999992 -26.7323
56.196648 35.815998 -18.189919
108.99466 3.3760529 -35.000229
35.348099 15.999947 -32.375305
138.9906 13.232788 19.986481
4.1877213 28.305119 35.000031
119.58704 5.2510643 -35.000229
136.63814 15.999992 5.5654907
0.00012969971 20.826176 23.536362
6.2701187 48.695751 -35.000229
0.00012588501 6.272438 -16.10009
130.78833 -8.7738037e-05 -9.1889725
75.633286 23.938465 -11.217567
0.00012207031 0.80956268 -24.518242
0.00012588501 11.193768 3.5462952
61.667099 38.033749 12.609047
5.6627808 40.53355 9.999939
101.20822 29.312782 -18.198112
55.554459 21.27317 35.000031
131.37532 15.326561 -17.860924
106.98744 -9.9182129e-05 -1.7726974
130.08234 -8.7738037e-05 -18.661995
135.22523 12.433178 -20.922508
143.60403 7.8564377 -35.000229
119.61092 15.999985 29.241028
30.110001 15.999943 -23.672646
148.00005 10.70903 24.507195
31.620674 15.999943 -5.5492172
135.65634 11.124039 -35.000229
88.644943 18.998951 -14.09449
14.497047 60.000149 26.078346
7.5815735 -0.0001449585 23.669228
127.87154 10.041313 -35.000229
83.69545 38.795101 -19.480408
51.181183 7.401516 -13.917671
105.55919 0.28216171 35.000046
129.78056 15.999992 30.570618
0.0001335144 25.802048 -18.628967
16.000134 41.605816 -16.807716
0.0001411438 39.636135 28.01915
131.05536 4.9343033 -16.663734
16.000122 23.687733 -19.688797
68.12355 27.239712 35.000031
51.131744 7.2601433 7.8286667
109.45384 11.878471 35.000046
128.60551 15.999992 31.503464
27.074242 15.999943 21.656158
104.46227 -0.00010299683 -18.192299
0.00012969971 19.461914 -18.208527
141.26001 -8.392334e-05 -27.835281
138.21555 12.768013 35.000046
77.963661 23.658695 23.171524
145.24449 -8.0108643e-05 -22.791451
101.37903 -0.00010299683 15.891869
31.724747 -0.00012969971 -32.038704
48.407249 -0.00012588501 -4.8557892
29.128845 15.999943 -31.087776
99.324661 9.6542282 -35.000221
148.00003 13.360546 -32.094826
10.333076 60.000156 20.202774
69.722527 23.599243 21.638084
9.7694435 -0.0001449585 13.08091
4.0738487 34.762768 -35.000229
3.4987526 49.692623 -35.000229
28.084671 -0.0001335144 23.070641
111.49614 15.999973 -25.090935
77.007889 23.795776 8.2996826
45.126251 -0.00012588501 19.412849
66.869492 39.353252 -11.076241
141.69806 15.999996 33.647705
16.000137 57.331989 -11.294777
68.603218 23.382732 29.345291
0.0001449585 48.003674 -31.484375
137.47034 4.8560829 -35.000229
0.00012969971 13.400543 -16.826439
56.366211 19.666824 35.000031
144.70384 -8.7738037e-05 -1.2784576
96.933395 7.0739784 -25.865334
71.431168 23.845139 -19.06102
36.170891 -0.0001335144 16.348389
0.0001411438 34.111111 -24.786316
140.95062 11.42453 16.592743
84.088524 25.918354 35.000031
9.708065 46.284977 9.9999466
16.000114 23.664345 -0.73413849
104.70258 15.986881 35.000046
68.098 39.545017 -14.889206
0.0001373291 25.780125 -15.698196
0.00012969971 12.785526 30.677841
91.551758 16.365093 29.352982
7.022728 53.731846 9.9999466
80.028969 39.526516 -24.721291
105.54584 24.569691 19.592178
8.0158577 4.9237251 35.000031
110.49631 -9.5367432e-05 -3.5614548
86.124741 20.70623 18.816566
143.8367 -7.6293945e-05 23.13118
63.999146 38.713474 16.555046
115.35361 15.999985 21.894661
32.017036 -0.0001335144 7.905426
144.48558 15.999996 14.933655
0.00015258789 57.881474 20.064903
118.71846 15.999989 18.809708
0.0001373291 23.767681 21.327827
128.62138 15.999992 23.972244
0.0001373291 34.137493 20.07756
7.3326797 60.000149 18.849426
40.438927 21.745022 -20.379356
40.709717 22.170826 1.8873444
95.067368 11.464733 -28.694077
13.791729 45.310314 9.9999466
82.028809 22.599552 -18.217834
16.000145 54.424252 33.695541
17.215099 15.999935 20.44429
16.000137 55.32333 -20.290314
70.380386 39.81921 -20.242615
73.531143 23.982338 18.039726
97.06514 29.24324 35.000046
35.305801 15.999947 29.445068
93.925934 21.599331 35.000046
74.321541 39.990292 24.17588
148.00003 1.3915977 5.1951141
19.325916 5.0350761 -35.000221
105.55045 24.5639 33.617889
110.84071 15.999981 28.022339
148.00005 5.4092712 9.2265472
147.30054 -8.0108643e-05 -25.136551
97.740631 3.4989319 34.245148
39.766869 -0.00012588501 18.100197
114.82675 -9.5367432e-05 -21.491867
122.83072 15.999985 -6.1822662
113.17336 -9.5367432e-05 -7.4940033
22.183784 15.999943 11.913559
66.065079 39.187923 2.0396423
16.000126 36.989483 -11.979187
16.000137 43.150127 31.855637
2.3349152 13.24831 35.000031
2.7800827 46.001125 -35.000229
127.88464 12.440479 -35.000229
139.54881 7.6522026 12.498146
15.931793 22.274384 -35.000221
18.065285 15.999935 9.2461319
2.1504402 57.69128 -35.000229
75.197205 23.954891 -27.9702
51.523956 8.3814659 3.0288391
2.7189484 -0.00014877319 23.174698
86.696899 37.913692 33.665024
50.390182 4.2214699 4.9178467
32.064514 -0.0001335144 -11.844322
0.0001335144 21.27515 -19.59008
136.07379 -8.0108643e-05 28.157333
148.00002 3.4015274 25.133888
119.7226 -8.7738037e-05 17.651436
12.517487 -0.0001411438 9.2687912
20.881821 13.161667 35.000031
111.64117 15.999985 24.70153
42.301682 12.813641 -35.000221
40.258766 21.455383 -34.684006
97.590683 4.3233719 -12.143417
3.3397179 18.039684 -35.000229
86.721298 35.514004 35.000046
16.00013 41.880619 -13.710999
11.740837 60.000156 27.471191
74.820747 39.975887 32.202896
0.00012588501 8.432518 22.456306
14.297047 43.862629 -10.00013
100.61249 20.747578 35.000046
108.47507 -9.9182129e-05 -0.15441132
125.0161 -9.5367432e-05 4.6654358
0.00014877319 56.384251 -26.713997
0.00012588501 6.9901543 7.0600204
140.57475 15.999992 27.995964
82.50071 34.67474 -35.000221
16.000141 40.471264 32.400436
16.00013 41.142246 -20.620117
10.0994 -0.0001449585 -30.120438
87.74144 37.562023 -31.512367
144.58597 -7.6293945e-05 11.230278
5.6651154 36.5518 -35.000229
95.084427 14.04417 -35.000221
23.137367 -0.0001373291 -26.59861
66.885902 31.508274 35.000031
93.903824 34.695171 10.3442
0.0001411438 42.714489 -31.343681
0.00015640259 57.26054 -27.887177
56.840797 36.115246 -13.293991
0.0001335144 17.058502 -8.2276001
16.000134 42.926746 21.755447
136.71014 15.999992 34.366928
16.000122 21.456944 -30.584747
29.387939 15.999943 -20.238708
105.46866 24.666687 11.197739
97.911423 1.9819069 -14.645302
55.103928 14.784153 0.76932526
2.1268158 58.030239 9.999939
142.28058 -8.0108643e-05 27.308464
39.158493 19.62199 -2.3322678
16.000134 31.457729 19.005165
96.051712 33.366535 -17.624481
13.365005 -0.0001411438 -11.234001
40.293625 21.511414 9.1977463
5.4615936 60.000141 -14.59523
9.7768402 60.000149 30.897812
133.4149 15.999992 -8.2565689
25.776558 -0.0001335144 30.039963
88.316467 37.334553 4.2953415
66.225853 22.688564 22.252068
80.905388 39.398556 -0.62463379
0.00015258789 58.596676 -15.930878
116.84113 -9.1552734e-05 -0.059951782
130.39661 15.999985 -22.49839
90.568985 17.347866 21.809204
2.2999649 60.000141 -28.647255
136.10886 5.3150673 35.000046
28.321075 15.999943 33.603104
50.259087 32.189068 -27.899239
16.836643 15.999935 30.728073
70.764519 39.852734 16.009178
16.000137 35.220928 30.098892
14.533943 29.651699 35.000031
46.533737 -0.00012588501 -16.108803
115.26419 15.999981 -17.402428
83.342392 38.889423 14.195541
15.345371 49.033123 9.9999466
140.3194 -8.392334e-05 32.855057
148.00003 1.285862 33.355988
78.431702 23.57008 16.581703
68.665527 23.399113 3.8677673
37.851265 17.084457 17.421562
55.728256 15.535336 11.087357
86.31189 38.040752 17.413391
110.54666 -9.9182129e-05 -11.01181
43.09642 -0.00012588501 -14.152924
105.81799 24.227753 -25.130882
95.570236 10.512634 -5.5374374
145.9577 9.1288147 35.000046
37.538712 -0.00012969971 -27.903915
56.020569 15.87492 -17.303131
72.097549 23.920097 -22.406921
0.00012969971 9.7026367 -14.21489
16.00013 39.822529 -24.675102
131.04637 10.178974 15.444359
19.284931 -0.0001411438 28.792953
14.908142 47.543568 -10.00013
0.0001335144 18.056404 27.285301
67.650887 25.18166 -35.000221
12.545235 37.555073 -9.9739456
7.5798073 8.2095985 35.000031
71.333679 23.834171 -33.754242
72.256744 23.934315 31.665817
44.453857 -0.00012588501 1.9842987
52.595634 33.775951 -1.8755112
3.5110817 58.592426 9.999939
140.81006 14.558594 14.696411
17.83947 -0.0001411438 -0.79111481
97.759567 3.3306389 7.0323029
16.000134 51.710751 -26.639503
101.3416 -0.00010299683 1.7815094
0.0001411438 41.93066 -26.456116
64.293755 34.224743 -35.000221
125.737 15.999985 -22.748291
120.93417 2.0817299 -35.000229
75.808342 39.947414 -0.33694458
97.931763 1.8003922 18.298058
0.66742325 9.3208046 -35.000229
148.00005 8.916317 13.915001
14.673611 56.791286 -10.00013
48.139664 -0.00012588501 19.535194
102.87996 13.911533 35.000046
16.00013 35.554699 -31.092003
0.00014877319 51.025112 -33.719017
38.583374 18.565319 -10.563507
90.474396 30.715832 -35.000221
79.111313 39.660488 -15.437523
50.750885 16.467392 35.000031
58.367989 36.814068 13.887527
55.490982 27.16647 35.000031
145.86754 16 32.869614
41.660141 -0.00012588501 16.887199
0.0001373291 25.019955 8.3020401
95.623367 28.646816 35.000046
57.40799 36.378727 -9.8355408
0.46985245 -0.00014877319 -16.924675
16.00013 30.164104 -26.308014
53.212326 11.993984 -24.469574
72.977798 23.961475 -25.840248
0.0001373291 27.115147 -8.2532578
16.000118 20.858257 -30.786446
137.1503 15.999992 -10.490463
9.8372993 16.095062 -35.000229
102.68674 -9.9182129e-05 -20.960281
140.98175 2.732029 -15.780846
27.709297 2.0994759 35.000031
71.570457 39.923046 9.0416412
34.802147 15.999943 -19.274544
8.4441376 16.878738 35.000031
13.980202 37.785091 35.000031
33.458908 -0.0001335144 5.1238556
72.279411 39.949932 -7.0730515
22.430222 15.999943 -2.7131729
22.186508 15.999939 -9.0445404
32.019775 -0.0001335144 20.552238
13.792511 39.361065 -35.000221
69.997299 32.071575 -35.000221
74.186989 39.994167 20.444237
106.20879 -9.9182129e-05 20.17263
97.590332 4.3251801 3.9806671
35.286736 15.999947 -2.3869095
16.000137 39.06712 14.819778
99.249588 5.4197769 35.000046
38.204788 -0.00012969971 24.418365
97.906067 2.0294342 -32.283073
113.28578 0.56607056 35.000046
146.26384 0.68624115 -35.000229
83.511314 22.016407 5.912468
0.0001373291 27.021492 -22.277893
16.000122 18.848499 -24.404175
66.592194 39.296261 -3.5642929
119.09616 12.683163 -35.000229
97.893784 2.1383171 7.9805298
13.805199 -0.0001411438 12.666824
100.80759 5.7854347 -35.000229
148.00002 8.1590157 20.981682
36.875893 -0.0001335144 -9.8868561
103.0162 2.3098106 -35.000229
4.9721527 29.665371 -35.000229
131.56462 9.8172531 13.707047
16.000137 59.935772 -11.219429
77.223747 39.853771 8.5254974
0.050598145 -0.00014877319 -30.037201
26.41674 15.999943 -1.0613251
14.757263 -0.0001411438 4.792038
16.033932 15.999935 23.286324
0.00012588501 5.3739052 -27.994553
146.73262 -7.6293945e-05 28.731613
0.00012207031 0.28790283 19.59552
16.000137 56.470325 -29.056747
25.014046 -0.0001335144 23.411766
17.572845 -0.0001411438 17.307701
0.00012969971 16.88131 -2.9339676
136.50404 13.175053 -20.967827
89.53183 18.27494 -33.129593
40.222389 -0.00012969971 24.74054
40.373596 21.639988 21.574928
33.639908 -0.0001335144 -29.398331
29.450111 15.999943 -16.209846
90.319839 17.59663 -19.529839
111.75166 1.1203957 -35.000229
2.0272141 24.078949 -35.000229
148.00003 7.5581093 14.577744
30.489182 -0.0001335144 -16.895477
71.034569 39.876293 -0.82541656
15.064121 4.3623848 -35.000229
40.776962 22.266117 -18.665367
131.98145 15.999992 1.5750732
139.79793 15.999992 -26.577637
16.664589 15.999935 25.439819
108.63158 20.008053 -22.47406
0.0001373291 26.204975 -14.037811
1.3450012 -0.00014877319 13.725708
64.24852 21.91148 -2.6909409
0.0001411438 31.109894 19.543823
55.557449 15.336903 -33.477631
8.2437363 -0.0001411438 -30.911346
9.0771446 40.472149 -35.000221
57.620644 22.338314 35.000031
8.9648819 58.641285 35.000031
133.51787 13.294827 20.322281
121.64037 15.999985 20.980995
44.851982 -0.00012588501 25.886963
2.5169411 34.937519 9.5036011
51.949173 33.366985 18.764099
136.40274 5.626545 -20.982895
0.00012969971 6.9087257 -30.878723
16.000118 23.76297 -25.221992
28.585648 -0.0001335144 25.246803
85.417511 21.092304 -33.247192
2.8959618 38.131062 35.000031
16.000137 57.096752 33.777298
144.64394 -8.0108643e-05 -14.009544
2.0553474 18.260662 35.000031
16.000122 17.912457 -34.414101
127.06511 -8.392334e-05 8.3743591
24.18161 -0.0001373291 21.945412
16.00013 34.139202 -21.821381
0.00015258789 55.825504 -24.506691
14.259514 47.447491 -10.00013
82.676048 23.819847 -35.000221
20.844204 15.999939 30.835007
133.74821 15.999989 -30.897194
63.920296 38.69241 -19.897873
0.0001335144 17.507965 -24.371109
24.532791 -0.0001373291 -10.498077
0.055168152 -0.00014877319 -12.633766
4.9366989 60.000149 14.62056
0.0001373291 23.775494 16.815033
117.04364 15.999985 25.137352
50.141457 2.4501381 6.965065
3.9404373 -0.0001449585 -10.585571
0.0001411438 34.870419 29.931488
98.548111 31.560764 -9.0295258
49.479706 20.34547 -35.000221
0.00014877319 48.212894 -27.99247
107.39778 22.007862 -25.160759
33.335953 8.5718613 -35.000221
127.70906 9.0029182 -35.000229
148.00003 7.6622963 19.738884
95.870483 15.200619 35.000046
8.4076157 60.000149 18.867844
0.00012588501 5.6443939 1.2756729
56.916168 25.804974 -35.000221
0.0001449585 48.55341 -21.053131
70.211243 36.330853 35.000031
31.07637 11.166779 -35.000221
148.00003 15.344997 -25.935745
16.000137 52.384441 -12.572876
114.65883 15.999985 11.230194
27.661423 -0.0001335144 -11.955261
144.65617 15.999996 16.168839
0.0001335144 24.23341 -15.239723
42.194275 24.242863 33.156738
29.334991 6.2852058 -35.000221
0.0001373291 22.231041 33.575806
4.6284866 56.399464 9.999939
16.00013 39.841785 -25.434082
38.763847 -0.00012969971 7.1499481
20.24332 -0.0001373291 -20.34198
91.774857 17.136562 35.000046
113.17456 14.999779 -35.000229
52.440811 29.252552 35.000031
85.344406 28.844456 -35.000221
3.5078964 50.746471 9.999939
66.109413 39.197041 25.841873
112.63916 -9.5367432e-05 -10.451859
71.400452 23.841686 21.113937
55.816162 34.126965 35.000031
44.690079 -0.00012588501 28.056335
135.90428 15.999989 -10.730423
47.819 -0.00012588501 -5.1455841
104.05737 -0.00010299683 -15.748909
41.779335 -0.00012969971 12.677811
36.466759 15.99995 -28.042625
74.209251 23.992126 25.086662
52.347626 33.623638 7.5349731
16.000134 48.477757 -11.151001
11.773281 39.962238 -35.000221
5.5538788 -0.0001449585 8.5918884
35.369835 -0.00012969971 32.82962
0.00015258789 59.989857 27.214256
6.9912491 -0.0001449585 13.991737
111.97333 -9.5367432e-05 -19.201775
126.804 -8.7738037e-05 -19.56778
148.00002 4.9877701 30.075348
117.76781 -9.5367432e-05 -25.798241
17.495003 9.4265823 -35.000221
148.00003 3.4450569 12.379265
43.825523 -0.00012588501 9.4037781
39.33564 19.947456 14.810524
139.33 9.7468452 -12.278069
81.990021 39.176647 -2.7413025
8.2726936 -0.0001449585 -9.6713867
75.110497 39.967541 1.1275253
23.647781 15.999943 -16.172897
0.00012969971 12.668533 -18.120903
75.942604 39.943539 18.886147
0.0001335144 16.750957 -0.22380066
16.000141 55.521938 25.288879
0.00012969971 6.3573265 10.206062
21.371262 -0.0001411438 -25.883415
77.052101 39.86874 -21.775772
14.424992 60.000149 -13.312744
112.01422 -9.1552734e-05 18.819916
78.547752 23.548107 2.9031067
75.000366 23.962315 -34.544342
122.34773 -9.5367432e-05 -17.562485
130.62483 15.999989 -12.454544
139.07693 -8.392334e-05 -28.712807
9.7481766 40.933544 -10.00013
18.514393 15.999935 2.6677933
72.426384 25.289742 35.000031
42.447105 24.56057 -23.945313
16.000126 19.720371 4.1283569
23.574074 -0.0001373291 13.913307
56.739365 16.656033 -23.139206
0.00012588501 0.062049866 2.1827469
62.221176 33.521267 -35.000221
11.083065 -0.0001411438 -19.09948
15.612389 60.000141 -29.28801
41.536507 8.6952705 -35.000221
0.00014877319 56.554989 -24.670242
111.89758 15.999981 28.777573
146.19637 9.0631104 -35.000229
0.00012969971 13.293049 21.071518
16.000141 47.656338 26.442169
30.962532 15.999943 7.0896225
33.912308 -0.0001335144 -22.987968
146.98062 -7.2479248e-05 25.096703
36.199951 -0.00012969971 -13.189964
98.518631 31.58395 10.698944
29.279541 14.512192 35.000031
72.922646 39.968487 8.1293259
77.870728 26.987499 -35.000221
35.69529 15.99995 9.138649
141.31525 3.4899635 35.000046
10.446804 31.377163 7.4759369
1.6387291 32.81036 35.000031
52.394165 19.673412 -35.000221
0.00012588501 2.885807 27.275383
39.926758 -0.00012588501 -16.81665
0.0001373291 26.095753 27.92897
35.624985 -0.00012969971 30.29567
123.91351 15.999985 11.26532
51.055107 7.0304985 13.360016
6.2558327 -0.0001449585 30.268402
3.6806107 60.000149 19.680878
21.48085 15.999943 32.679016
0.00012588501 5.5878944 6.9523163
0.00012588501 9.067009 -26.2892
94.413223 34.384777 3.8021545
115.24707 15.999977 4.5437622
37.382881 -0.00012969971 -3.428894
33.679115 11.252316 -35.000221
19.438549 15.999939 -23.64035
98.185623 31.845844 -25.158226
15.969852 -0.0001411438 -30.179855
75.094482 23.958767 -9.2145004
59.969582 37.44762 -17.544289
3.1725693 58.487949 35.000031
0.0001373291 30.497486 -19.086136
0.0001449585 45.112934 -16.7267
97.846176 2.5614014 -4.3187027
28.413368 15.999943 17.494209
126.05351 13.885811 -35.000229
137.84959 0.7093811 -35.000229
96.504379 33.051022 4.4789734
16.000145 54.627911 21.639397
146.53992 -8.0108643e-05 -31.400574
32.808929 14.019798 35.000031
48.021767 -0.00012588501 -7.1541138
148.00002 6.7554207 28.635056
31.879799 15.999943 23.878502
40.377274 -0.00012588501 -11.880989
50.271133 3.5929146 8.7058105
69.167412 23.494141 4.1988525
49.662804 31.726467 26.59642
28.834869 15.999943 -13.930275
89.62381 18.195747 -10.862045
96.460663 9.8328705 35.000046
0.00012969971 17.224789 -26.607582
0.0001411438 34.090832 -13.931976
1.9257622 -0.00014877319 -13.257149
16.000145 53.080685 12.559326
5.5174522 57.510067 -10.00013
139.15739 15.999992 4.6849823
21.48439 -0.0001335144 26.269836
59.322784 37.191753 -31.405373
11.103592 60.000149 -23.734314
120.72624 -9.1552734e-05 -8.3898544
111.87215 15.999981 -24.427574
36.99575 -0.00012969971 13.952316
59.244728 37.160885 -17.510368
146.74492 15.999992 -28.248505
91.863297 16.010029 -9.1363602
51.041473 32.734364 15.493912
69.377136 39.731686 33.683975
97.556625 4.5032158 -4.2273331
11.29467 4.7442055 -35.000229
0.00015258789 55.212849 20.906288
56.3992 16.314789 -18.926094
124.43698 3.3542213 35.000046
10.384499 43.770222 -35.000221
140.9446 3.3435516 -15.335426
9.6996307 -0.0001411438 -21.912575
83.484489 38.851467 9.0949173
32.752373 15.999943 -33.617371
0.0001449585 41.154026 -27.315727
5.8533478 57.202435 -35.000221
51.58593 8.5586739 -14.78437
139.35588 -8.7738037e-05 -11.247574
140.25163 -8.0108643e-05 25.925743
0.0001411438 35.571217 17.088249
48.621658 27.400707 -35.000221
126.42117 15.999989 -30.082184
16.000122 30.639439 -19.495781
136.95074 -8.7738037e-05 -9.5889206
0.00015258789 54.470882 -34.375404
83.404739 22.06292 -32.287758
35.357269 15.999947 -1.1440506
98.528625 21.039829 -35.000221
46.829628 -0.00012588501 33.686447
0.00015258789 54.73473 -26.503914
8.8073273 42.027988 -35.000221
0.0001449585 42.982578 -20.30072
33.475037 -0.00012969971 27.725494
0.0001373291 35.087162 -21.087799
97.53212 4.6325569 15.232834
148.00003 11.679188 -13.320457
32.270721 15.999947 11.304695
148.00005 12.385639 28.006516
15.410286 38.363232 9.9999466
106.62155 -0.00010299683 -20.899979
122.54126 8.9474068 35.000046
124.8766 -8.392334e-05 9.0851593
16.00013 37.055813 -16.816452
19.461559 15.999939 4.1324463
7.8093033 60.000149 -23.75663
42.300743 24.376659 -19.061104
143.04964 -8.392334e-05 -7.5985413
106.50597 11.737247 35.000046
101.37447 -9.9182129e-05 13.178215
84.076813 38.693249 24.09024
125.74419 -9.5367432e-05 -7.6341095
0.00012588501 1.8505783 20.986244
16.000137 52.524326 -18.338425
110.10378 11.988186 35.000046
83.624825 38.813976 1.9889297
100.1965 5.5583267 -35.000221
99.375107 -9.9182129e-05 26.063301
75.097557 23.958649 12.051384
86.485443 20.479454 4.30439
3.9731979 43.233662 -10.000137
127.95164 -9.1552734e-05 -2.92939
53.916389 13.11478 -21.197968
0.0001335144 17.854481 11.258766
51.808357 9.1094704 32.741623
0.0001449585 37.721676 11.908417
92.546661 35.423504 24.55529
9.5657005 60.000149 -16.76088
41.539909 -0.00012588501 21.094337
83.807114 32.827488 35.000046
67.574722 23.107151 17.356216
82.788414 27.048828 -35.000221
60.768181 20.010075 -22.309387
16.00013 25.374691 25.935364
0.0001449585 46.318073 22.36805
81.972061 22.619404 29.524231
117.35545 -9.1552734e-05 -31.531219
49.193001 10.447445 35.000031
81.682373 22.72073 6.4685135
27.181564 -0.0001373291 32.62439
89.537125 18.27039 5.3391342
49.524063 31.617359 -17.624741
131.45087 15.999989 -2.0432129
66.832886 39.34573 26.762581
123.45181 15.999985 2.0854797
76.287224 23.876835 -26.553894
15.382454 -0.0001411438 -1.1277466
105.53423 19.356865 -35.000229
70.284927 32.189754 35.000031
16.00013 32.0704 27.400391
148.00003 15.277149 -8.3979034
86.287537 38.048809 9.6735153
92.731049 15.001949 11.812965
44.706734 2.1138916 -35.000221
28.090454 -0.0001335144 3.4973831
22.285599 15.999943 29.393524
116.22916 15.999985 25.24247
131.72102 14.678307 18.560577
16.00013 30.226597 -9.0380402
97.233353 22.794422 -35.000221
16.000137 34.271709 23.232895
129.95535 2.4854774 35.000046
124.99422 4.795536 -35.000229
78.734222 23.512798 5.495842
65.557945 22.454941 28.801132
111.19115 -9.5367432e-05 -25.423149
148.00002 4.9257622 4.253067
116.7233 15.999981 -29.761108
0.0001335144 13.967937 11.662109
134.31416 15.993912 -20.689583
79.828751 23.26704 32.707382
148.00005 7.267498 -20.22567
16.000145 53.247524 30.557541
148.00003 9.5199738 7.0849686
36.88913 -0.00012969971 -7.8230972
4.3874855 2.1681328 -35.000229
2.8576012 2.0251884 35.000031
113.1819 -9.5367432e-05 4.0334625
34.829979 -0.00012969971 -10.482788
16.00013 34.506618 28.720352
39.566101 -0.00012969971 6.3022385
136.87756 -8.392334e-05 9.5244064
141.09409 15.999992 28.564804
106.35614 14.707912 -35.000229
136.86014 6.1867485 20.908043
61.710777 38.048161 16.09214
16.00013 23.667412 15.377274
0.70383453 3.171833 35.000031
53.317841 12.162731 7.6855621
16.000126 18.09008 15.000778
0.0001411438 39.592083 -16.690315
136.69217 8.3751984 20.936142
91.879349 33.438152 35.000046
138.82201 -8.7738037e-05 -27.170326
0.0001335144 20.406666 -16.042282
34.670288 -0.0001335144 -19.357307
133.28242 0.11052704 35.000046
127.70383 15.999989 -1.5593491
0.0001335144 18.088795 -32.612961
57.085861 17.002522 19.49572
79.300552 23.405575 -23.78759
0.057518005 60.000149 -32.333221
63.137199 21.385197 -18.421806
146.84793 -8.0108643e-05 27.424179
85.047577 21.287697 1.2755051
16.000141 50.15279 26.464882
129.2141 -8.7738037e-05 -0.43640137
19.462883 -0.0001411438 -20.340996
22.262062 11.559551 35.000031
94.922546 11.738922 -0.69029236
17.338417 15.999935 33.064346
52.033844 9.6260834 1.8098526
52.036377 33.427784 12.018997
16.000137 43.858273 20.833374
15.885391 60.000156 -14.765518
124.20512 15.999981 -1.3193817
16.000137 46.775677 -14.668678
81.785423 39.2187 -6.5446854
71.340385 23.834927 -0.11112213
0.0001335144 17.183643 27.393044
77.024979 39.87112 11.876648
42.415314 14.584934 35.000031
11.240021 60.000149 20.090309
16.000134 41.919178 -17.634338
50.10009 2.0827255 3.8557358
89.061646 35.827175 35.000046
118.71313 15.999981 -1.786438
113.34055 14.32645 -35.000229
0.0001449585 39.035427 32.667831
67.413048 39.445019 15.764626
7.4183578 20.916546 -35.000229
0.0001449585 49.22501 34.981476
47.924004 15.603374 35.000031
75.775566 23.933102 9.1842575
136.82672 -8.0108643e-05 -32.698624
124.34505 15.999989 -10.108147
40.439224 21.74551 -33.254257
0.00012588501 1.3978348 -26.652832
16.00013 25.098209 -12.653641
16.000118 18.06789 2.2699738
19.527096 13.28344 35.000031
9.1924171 -0.0001449585 30.057739
6.9335175 38.015179 35.000031
15.761894 33.348331 35.000031
135.88387 -8.392334e-05 -4.7871628
0.00014877319 53.711987 16.83773
7.3780479 28.02927 0.68585205
75.950363 23.91473 23.851685
0.0001449585 47.526379 27.127289
13.027195 35.558689 35.000031
111.9222 9.829113 35.000046
148.00003 2.8796082 9.3389816
4.5290871 -0.0001449585 18.056938
14.708168 51.129192 35.000031
136.15898 -8.0108643e-05 21.643608
16.000134 26.854031 30.839737
29.790596 15.999943 -0.078598022
16.000134 38.433926 -19.404549
0.57980728 31.383152 -35.000229
0.0001449585 43.917583 -11.312149
76.581161 39.90984 -12.913483
16.000137 35.81493 13.247787
0.00012588501 7.6337128 12.635674
12.922543 16.189312 35.000031
97.625244 4.1408691 -11.546928
10.600983 44.104183 9.9999466
31.311989 -0.0001335144 21.012634
1.2640572 40.385349 -10.000137
113.91371 15.999981 -27.95047
116.77434 -9.1552734e-05 31.464401
1.6405067 36.142895 -35.000229
72.193459 23.930889 31.046188
146.04185 15.999996 24.258545
47.55587 0.69501877 35.000031
0.00012969971 13.318249 -30.830719
74.404907 23.984745 -13.984932
3.5596733 60.000149 -33.012024
131.62984 15.999989 -19.000923
35.999519 9.5015602 -35.000221
148.00005 11.177959 34.33989
87.118561 20.081394 -20.382919
143.57463 -8.0108643e-05 -26.708725
76.20092 39.936092 -16.751221
133.35751 -8.392334e-05 25.418159
0.0001373291 22.210293 7.7499084
0.00014877319 53.62476 -29.646599
33.234489 -0.0001335144 -0.74095917
0.00015258789 55.147366 23.455338
0.0001373291 26.704704 0.090667725
7.5723839 54.998837 35.000031
51.828995 9.1567574 -1.4067764
16.00013 22.379833 6.2544327
0.0001373291 28.786129 -9.8323288
58.138931 17.991375 -3.4972382
82.041458 22.595127 -26.074493
115.46194 -9.5367432e-05 -20.277016
0.00014877319 50.300266 12.661339
22.118408 -0.0001373291 -0.59368896
131.56206 0.92393112 35.000046
96.897491 31.430378 -35.000221
66.978966 27.825615 35.000031
137.25175 7.6105232 -35.000229
125.39061 -9.1552734e-05 -1.9944077
42.28743 24.359913 24.526192
93.089859 18.23172 -35.000221
94.246124 34.487377 -4.2224045
16.000137 52.387829 -32.491707
0.00015258789 54.083958 28.04364
14.532478 60.000149 -21.087982
107.29813 22.159985 24.891602
77.199615 39.855877 -31.542297
116.72675 -9.5367432e-05 5.6203003
121.54402 15.999989 24.57798
139.74274 4.5566025 -35.000229
126.3063 15.999985 18.862946
96.220474 9.043808 -3.9528122
0.00012969971 18.83736 -29.45002
27.042297 -0.0001335144 12.093155
50.513199 16.050564 -35.000221
132.10866 8.4354401 35.000046
105.508 24.617252 -23.182877
16.000134 31.213253 9.5705795
53.615654 17.515152 35.000031
48.100693 23.052914 35.000031
16.000134 39.822826 -10.789711
68.871475 39.65794 -11.072258
122.96872 15.999989 18.19162
2.2761726 42.793507 9.999939
136.91426 -8.392334e-05 -30.838249
132.56566 15.999992 9.2530594
16.828392 -0.0001411438 18.886551
120.90039 3.2702408 35.000046
73.659622 39.989727 -13.181938
147.92924 3.5282402 35.000046
42.394348 -0.00012588501 -33.595055
126.04295 15.999989 -5.5278015
80.192886 23.16946 13.219673
92.384903 15.404064 -19.095589
77.055115 39.868481 2.2252426
95.737335 33.571606 21.638947
58.228874 36.759037 -31.319839
29.431427 15.999943 4.173233
130.27411 -8.7738037e-05 -33.006935
111.8501 6.1893311 35.000046
86.171402 38.087109 -16.362984
95.330154 10.967205 -17.601974
111.99962 -9.9182129e-05 0.52484131
50.500351 4.8031807 -16.904221
0.00012969971 8.3187904 -10.663559
106.55182 23.217541 -18.895233
31.723557 2.1197128 35.000031
140.93893 10.390942 -15.267395
37.929214 17.249634 21.741768
40.286621 20.351849 35.000031
12.597282 50.310894 35.000031
104.9536 16.854137 35.000046
147.05379 16 21.194641
148.00002 1.3872757 -8.8240128
16.000126 26.606922 -26.356407
18.052078 -0.0001411438 -29.717644
105.79298 24.259182 -3.4632721
1.4674263 39.814579 9.999939
16.00013 28.58139 16.12162
61.952774 27.780689 35.000031
52.014763 33.412724 -18.073273
79.875 23.254642 2.5882492
0.00012969971 11.702629 -21.7621
123.04504 -8.7738037e-05 28.771271
95.627701 22.904156 35.000046
133.09981 3.5376854 35.000046
132.80287 11.128307 19.825523
127.08658 -8.7738037e-05 27.413521
117.44759 10.051739 35.000046
47.262291 -0.00012588501 -1.6693192
123.13042 15.999989 3.5306473
147.16357 -8.0108643e-05 -2.9327545
95.804733 9.9962425 30.902466
87.420593 19.891506 18.185883
12.383415 50.235302 -10.00013
10.639713 27.938812 -35.000229
0.0001373291 25.352669 -25.12796
0.0001373291 24.447247 -13.791817
126.83731 -8.7738037e-05 12.504234
106.1718 19.538162 -35.000229
86.548645 20.439724 -6.4420776
32.598083 15.999943 31.402542
96.169907 9.1596718 2.7415466
50.859344 6.2998734 -2.0537796
92.140488 15.688011 12.537773
55.774727 15.589306 -7.6695328
113.7762 15.999981 -31.48732
134.93439 15.999992 30.660294
35.555832 15.999943 -4.6042557
145.32062 -8.0108643e-05 33.596771
3.5233459 26.765057 -35.000229
48.613228 -0.00012588501 -8.9958267
148.00003 8.5788002 -7.7907944
148.00003 2.747921 -9.9103699
43.803566 -0.00012588501 -24.788788
7.0008583 -0.0001449585 32.51593
142.36426 15.999996 26.012253
148.00003 2.1845055 19.834579
55.479202 15.245998 -30.778061
147.54871 15.999996 -1.2798462
2.8447113 45.396084 -35.000229
6.260498 60.000149 28.869232
1.3403625 -0.0001449585 -24.244385
73.033592 23.963585 -5.0519257
121.71646 -9.5367432e-05 -14.084961
84.333191 22.375523 35.000031
16.000126 32.427891 -12.55822
131.94844 -8.0108643e-05 21.200523
146.40848 -8.0108643e-05 -15.335861
131.91626 15.839798 -13.140907
7.1769981 -0.0001411438 4.8382034
98.991348 12.593681 -35.000221
105.43488 20.02227 -35.000229
9.4876022 60.000141 -29.363403
21.878387 -0.0001373291 -2.9380798
49.07061 -0.00012588501 26.498734
136.81604 9.7088127 -35.000229
10.425526 34.933376 9.5023727
136.09827 3.4992599 35.000046
6.1316185 -0.0001449585 13.98983
52.75486 22.236935 35.000031
11.780716 58.733494 35.000031
48.724525 -0.00012207031 -18.138359
71.491417 23.851917 -16.974213
86.907867 29.862831 35.000046
0.0001373291 28.795162 27.302711
109.02405 8.3320961 -35.000229
12.620632 -0.0001411438 -6.448822
51.852867 9.2114296 2.9306564
107.47459 11.052441 -35.000229
16.000145 48.888638 22.385513
85.923523 38.168911 18.051201
35.202019 15.999947 8.4344177
54.046211 32.880199 35.000031
1.0769348 60.000149 -29.374672
140.99718 4.1279106 15.965622
27.904015 15.999943 15.160004
110.20274 16.970371 13.449692
22.903496 15.999943 -10.134789
127.77461 15.999989 -5.5705185
108.63722 19.997673 -18.36322
148.00003 10.594471 27.326149
111.18658 -9.5367432e-05 22.968269
137.40666 15.999989 -8.2889481
91.937775 28.712738 35.000046
108.85069 19.60545 -20.237038
88.347855 37.32214 -20.027351
0.00015258789 57.312222 25.434929
2.9685631 25.125187 -35.000229
0.0001449585 52.014736 18.912422
90.121948 36.597187 -8.5418701
29.361183 15.999943 13.828415
0.0001449585 46.817104 -24.521828
123.5831 15.999985 -32.856682
46.165535 2.2575417 -35.000221
0.0001335144 15.884663 27.296333
134.03969 15.594315 20.595276
125.7683 15.783092 35.000046
97.819839 32.133472 -19.165825
140.74861 15.999992 -18.152161
114.5853 15.999981 -24.850609
35.985252 3.3545685 35.000031
20.650997 -0.0001373291 13.988907
115.75055 15.999981 -22.368065
103.0029 -9.9182129e-05 27.98687
52.103363 31.79636 -35.000221
0.00015258789 57.598309 15.486694
5.6161041 -0.0001449585 25.78653
123.10641 15.999985 -19.077179
148.00003 3.8312149 -28.652367
97.797882 32.149502 22.961929
31.929245 7.6913795 35.000031
120.88759 10.636574 -35.000229
123.6711 10.491825 35.000046
30.361687 -0.0001335144 1.3567429
57.390923 17.307587 -24.291801
16.000118 18.021378 -11.390312
50.177689 2.7719688 -18.784294
146.41502 -8.392334e-05 -7.8505783
9.2353897 52.363171 -10.00013
35.458992 15.999943 18.119057
4.8289986 -0.0001449585 -4.2196884
139.4249 -8.0108643e-05 -33.664597
62.909683 38.422466 7.794426
41.154297 -0.00012969971 5.6278076
0.79904175 -0.00014877319 16.80999
147.32158 15.999996 -15.678574
124.41956 -8.7738037e-05 -1.7760239
125.74081 15.999989 22.615982
122.1041 -9.1552734e-05 -23.730118
96.732483 12.505035 -35.000221
32.164803 -0.0001335144 -8.2748871
0.00012969971 4.3740883 4.1916199
117.89026 15.999985 32.012512
91.622849 21.932896 -35.000221
15.613575 -0.0001411438 -25.95504
0.70635223 60.000141 15.814056
32.615341 -0.0001335144 -25.042816
129.2654 -8.7738037e-05 3.3278961
40.955414 4.7856636 35.000031
71.533218 23.856617 -19.768974
6.9847832 38.009167 -35.000229
9.0120964 24.490978 35.000031
51.524025 8.3816833 27.385887
0.00015258789 59.218472 -11.981659
59.872025 31.38158 35.000031
8.8725204 44.850285 35.000031
108.44223 -9.5367432e-05 -32.860497
148.00003 5.5898705 -3.4722137
114.14044 15.999981 -21.788231
95.069473 16.540432 -35.000221
76.556519 23.846546 2.0234833
27.100685 15.999943 24.111313
111.21275 -9.5367432e-05 -32.990845
66.633797 39.304806 30.811859
16.000134 19.59446 16.187553
63.458511 24.22591 35.000031
65.943039 22.589642 -28.394569
123.60277 -9.1552734e-05 11.13588
78.411621 24.023857 -35.000221
8.3562279 7.6747017 -35.000229
106.19226 -0.00010299683 -25.466972
69.012398 39.678516 7.5664902
123.83359 15.999989 16.172165
109.9991 17.40189 -32.989517
123.99156 -8.7738037e-05 -15.351288
38.39978 18.227978 20.694778
24.235664 15.999943 -29.027657
43.762772 21.918346 -35.000221
49.406349 -0.00012588501 -18.092079
13.298759 60.000149 22.702705
97.35379 5.505043 25.758072
92.377625 25.209133 -35.000221
10.978542 -0.0001411438 24.570297
0.00012969971 7.1587563 -7.1237488
0.0001373291 30.645912 26.584404
0.00012207031 0.74385071 -0.79420471
0.00012969971 11.805813 -1.2686462
46.808434 -0.00012588501 -13.376266
98.600647 18.227005 35.000046
0.00012969971 15.723 0.66146851
116.73051 11.916435 -35.000229
107.94165 21.133457 18.835556
4.0157166 37.778835 -9.9871216
141.33372 -8.7738037e-05 -12.557602
55.530754 15.305874 28.095322
74.971321 23.963406 -30.856041
47.083939 -0.00012588501 1.2712097
76.339935 39.930889 25.273689
0.00012969971 11.72683 -11.210007
47.756134 -0.00012588501 29.405502
0.0001449585 41.42664 -31.513939
16.00013 20.901028 14.28083
118.77338 15.999985 -5.4724808
117.95645 4.1067276 35.000046
0.00012969971 12.470402 0.74078369
132.64687 15.999992 31.570053
16.000153 58.221325 22.473076
118.86751 -9.1552734e-05 26.73423
16.000137 46.968632 33.609756
16.00013 37.687191 -22.558853
0.019176483 43.285671 35.000031
29.380302 -0.0001335144 23.018456
6.9672165 60.000156 -12.666641
46.164574 -0.00012588501 -32.765282
89.733566 36.773983 -31.408501
148.00002 0.74139786 -8.3492355
16.000122 35.568867 -29.993683
36.023865 15.999947 22.757339
0.00012588501 2.9451256 23.749802
0.0001373291 30.671478 27.49913
87.458252 26.731533 35.000046
108.73712 13.390961 -35.000229
86.233612 33.503338 35.000046
0.0001449585 57.447155 -22.518234
1.3174095 -0.00014877319 -21.668571
10.998741 53.902645 35.000031
80.043091 39.524456 29.387299
97.848465 2.5410271 23.261131
0.0001335144 15.243595 1.8720779
0.00012588501 2.0914078 -27.266525
148.00003 1.7990456 -26.650238
148.00003 9.8160744 -22.397812
16.00013 43.156017 -27.995163
148.00005 6.362812 -29.731743
148.00003 4.7315865 -21.041283
123.28615 15.999985 -1.4603882
16.000126 30.926323 -23.28788
7.6899872 -0.0001411438 -16.640739
113.27567 10.384014 35.000046
16.000122 25.730564 -6.7259369
104.87596 13.005016 35.000046
0.00012207031 1.4263802 -33.064201
2.9841156 48.119038 -35.000229
16.000141 46.869198 19.036644
95.448456 10.743214 29.333298
16.000126 25.812305 23.013451
10.0205 -0.0001411438 -8.5240631
66.699272 39.318264 24.656349
122.25429 8.135231 -35.000229
145.93585 -8.0108643e-05 20.524025
144.75215 15.999996 28.725876
42.987701 6.2138252 -35.000221
10.363453 60.000149 30.754807
143.87979 15.999992 -24.161774
3.4581909 -0.0001449585 9.1568985
16.000137 53.437458 34.290146
0.0001373291 26.334484 -26.624222
16.000118 23.220848 -6.8782272
61.607765 38.014172 18.239388
16.000134 56.53577 -21.21582
5.5869179 35.217625 35.000031
122.38028 7.0556755 35.000046
34.282143 9.0999832 35.000031
19.807404 -0.0001411438 33.669693
119.51537 -8.7738037e-05 18.326912
69.641861 28.457386 -35.000221
0.0001335144 13.38097 23.812286
91.600784 35.910198 -11.229088
6.1857986 2.3809814 -35.000229
80.057373 23.205784 -2.1432495
0.0001411438 36.910076 15.697006
110.54468 -9.5367432e-05 -24.41375
143.80843 1.2394943 35.000046
126.54807 -8.392334e-05 17.988091
15.076744 22.382183 35.000031
16.00013 45.996975 -13.06752
84.136703 38.677242 5.1483002
64.818359 22.160229 -7.7579727
0.0001411438 34.258411 18.335678
93.761673 13.611122 -9.0442123
140.75835 15.460777 -14.492996
144.5513 -8.0108643e-05 -3.0617142
97.998062 0.05241394 16.094795
48.603233 23.542278 -35.000221
148.00003 12.571663 9.2460022
16.000145 52.586956 20.31662
86.512573 20.462391 9.9551163
104.8387 9.2467575 -35.000229
116.12372 15.999981 -18.740044
29.21788 15.999943 -22.272346
22.848923 15.999939 30.601257
115.75542 15.999989 13.323242
22.719131 9.8842659 35.000031
110.94762 -9.5367432e-05 4.7912216
12.506546 60.000156 15.765709
0.00014877319 54.249866 -19.622635
97.66127 3.9506645 21.679108
5.5540695 50.887753 -35.000229
51.777313 9.0383911 -22.107895
0.0001411438 31.222401 -31.444504
105.87408 5.0509682 35.000046
44.695061 -0.00012588501 23.82296
16.000114 16.046246 -27.50843
0.0001373291 31.641815 11.886772
24.231979 -0.0001373291 27.915741
148.00002 2.1918602 -18.765587
49.897438 31.910992 -13.135788
91.724686 35.852642 2.1068192
49.418938 23.718712 35.000031
88.443787 37.284176 24.412491
148.00005 15.951584 13.436134
87.254395 19.996002 28.778793
95.906418 33.467762 -31.586716
69.554939 34.176296 35.000031
0.0001411438 35.606548 20.335373
109.57088 18.282223 -22.829483
49.338142 26.300961 -35.000221
131.77679 15.999992 -4.8616486
148.00003 6.3067055 -24.235542
42.0028 24.002262 16.780617
22.434082 -0.0001373291 -30.776527
1.9610252 -0.0001449585 -18.199142
97.741241 3.4932137 28.643082
8.2856293 60.000149 -33.518463
133.04677 14.828579 -11.984581
11.859768 -0.0001411438 -33.06469
67.496414 39.457195 -23.841095
126.23445 -9.5367432e-05 -20.169014
32.68856 -0.0001335144 -10.720963
6.26371 40.748829 9.999939
113.32266 14.958931 35.000046
117.93608 -8.7738037e-05 -31.295547
132.36937 -8.392334e-05 -27.401962
92.557663 15.203358 22.358597
7.7418785 30.304455 -6.3594818
67.467972 39.45303 31.793579
0.00015258789 57.841763 -28.076653
7.0274696 36.717381 -9.9109955
16.000137 39.768024 10.516838
76.145607 39.937695 33.553116
141.19188 15.999992 7.3098526
79.161041 23.43198 -15.524208
0.00012588501 1.2281685 26.493256
148.00003 13.855259 -13.261086
25.96093 10.360188 35.000031
0.0001373291 23.014088 -2.7352295
148.00003 12.635242 17.862053
63.895111 38.685696 24.397781
16.000134 34.11211 15.97757
34.065811 15.999947 -15.304283
37.305466 -0.00012969971 19.721581
46.317932 24.497765 -35.000221
34.860382 -0.0001335144 20.332848
69.950974 27.940685 35.000031
0.00012588501 3.7314262 -24.559242
0.00014877319 49.286739 16.935326
22.885925 15.999939 8.0749588
138.12227 15.999992 -33.088646
79.466957 29.207138 -35.000221
52.763039 27.977268 -35.000221
55.730736 15.538216 25.191994
31.905319 13.53635 35.000031
0.0001335144 16.475407 -6.1554489
0.0001449585 36.152508 -28.607246
134.0619 11.030651 35.000046
63.772125 38.652828 33.047577
81.283043 23.124947 35.000031
96.217926 9.0496979 32.881622
105.545 -9.9182129e-05 -15.103584
148.00005 3.4782219 7.5460281
95.233231 11.1507 8.8803558
46.325638 -0.00012588501 17.421356
16.730331 -0.0001411438 -21.893959
111.40822 14.093674 -35.000229
37.326141 15.99995 31.508408
