# .PCD v0.7 - Point Cloud Data file format
VERSION 0.7
FIELDS x y z
SIZE 4 4 4
TYPE F F F
COUNT 1 1 1
WIDTH 1493
HEIGHT 1
VIEWPOINT 0 0 0 1 0 0 0
POINTS 1493
DATA ascii
16.000034 52.292057 29.549461
55.952106 15.795513 23.984787
148.00002 0.60521317 19.014366
95.879425 9.825119 -5.0435791
10.118938 3.3935204 35.000038
16.000034 31.335987 20.906464
117.37428 16.000023 6.2539215
138.97449 0.32285309 12.000946
46.061489 28.603939 17.137634
74.521378 23.980381 0.066085815
55.860088 25.841702 -35.000053
88.10347 19.398426 -14.567253
97.905746 2.0322914 -34.957306
24.033428 -2.2888184e-05 7.3663712
1.47118 -2.6702881e-05 11.288963
136.07291 11.792202 -35.000061
79.993805 23.222828 -12.022461
41.983997 23.976627 -14.64296
145.32835 16.000031 -24.822777
92.360703 30.134174 35.000038
2.4750557 45.34219 10
46.735638 -1.5258789e-05 6.7740936
77.808792 23.68803 18.805168
3.0517578e-05 22.83305 7.6858826
65.037842 22.256088 -23.623276
87.124908 20.077412 -33.448616
118.83965 3.8146973e-06 7.1787262
98.36731 31.702915 -2.5872421
132.81595 16.000027 -29.4981
31.982189 -1.9073486e-05 18.490608
99.966003 30.41267 -32.624191
60.654743 37.699673 -6.0622406
113.50395 0 31.816307
4.1182137 52.303989 10
3.4332275e-05 39.9324 -34.43029
50.051517 1.3577538 -7.696785
56.384548 35.903301 16.911636
16.000027 26.504269 14.910461
148.00003 8.4070854 -19.649574
73.309967 23.974022 -23.32988
109.66698 2.3903389 35.000038
2.6702881e-05 2.0918198 -1.5593948
112.90578 16.000019 -4.9978943
129.13716 16.000023 24.594322
2.2888184e-05 0.0012435913 12.71405
115.58502 3.8146973e-06 -17.31205
97.153702 6.2517204 32.171989
81.01741 22.948547 7.5072403
86.507935 20.465313 -15.923195
109.08859 19.16832 2.6639557
26.318523 -1.9073486e-05 26.432289
93.068802 14.550236 19.113792
124.02629 16.000023 31.062889
34.487507 16.000004 8.4647522
87.455734 19.869411 -12.534241
93.27565 14.269867 33.958977
92.129532 15.700748 -24.966705
2.6702881e-05 17.952312 2.8501053
43.393612 25.750027 -6.7363739
12.00391 60.000057 -32.269966
92.392746 35.506023 28.460594
2.6702881e-05 6.3150558 19.017548
3.0258446 45.880863 -10.000023
99.769791 30.586407 -22.580963
56.892551 16.809338 29.257195
50.406796 4.3096809 28.332237
58.033573 36.669353 -26.421822
134.02017 7.6293945e-06 -27.064522
44.591846 -1.5258789e-05 11.802422
1.3590012 14.463169 -35.000053
72.468842 28.307594 -35.000053
102.06731 28.475994 -9.7119522
50.8353 6.2105103 -18.551773
61.698696 21.443523 35.000038
77.818573 39.80183 18.759789
90.007889 17.865147 27.367256
3.4332275e-05 48.498638 -23.91301
148.00003 3.7358818 -29.459587
6.8733559 40.022526 -35.000053
12.48188 13.376614 -35.000053
43.747608 24.797176 -35.000053
43.293072 -1.5258789e-05 -11.959824
34.631207 16.000004 29.864265
16.000031 27.075375 -20.594185
71.271561 23.827221 16.244377
16.000027 20.403927 -23.963562
79.665375 37.084805 -35.000053
66.087646 22.640274 25.370705
16.000027 19.397232 0.77096558
61.679539 38.037853 25.384109
12.122887 23.721786 -35.000053
108.3721 19.279819 -35.000061
111.02089 16.000023 20.125252
0.75213242 60.000057 31.775246
106.49608 0 -34.402298
82.749893 22.347347 -11.786217
19.808067 16 1.1246338
97.78743 3.0828247 -2.8251648
32.338818 16.000004 1.5011902
2.6702881e-05 54.538654 32.501656
58.142727 17.994755 31.481285
24.980289 -1.9073486e-05 6.396431
2.2888184e-05 4.7256622 12.725456
106.91577 0 -19.712296
38.835514 19.028767 -11.334351
75.838501 39.946499 8.3807068
35.320492 -1.9073486e-05 -24.05278
99.683792 26.649273 -35.000053
3.4332275e-05 42.303585 -32.142601
9.2852287 23.78841 35.000038
2.5367241 -2.6702881e-05 -5.5771942
16.000034 50.303799 11.92173
81.179932 24.393246 35.000038
98.281662 31.77026 22.556976
28.942303 8.3592415 35.000038
1.8317909 55.651127 10
90.372787 17.544064 -18.909431
78.41214 39.75005 -24.875328
44.149891 -1.5258789e-05 -1.4298325
3.0517578e-05 35.291752 13.894585
67.686218 23.137062 19.270393
63.053143 21.34087 -5.649231
135.67906 12.919125 -20.982765
112.18466 3.8146973e-06 5.0026245
131.06639 0.77359009 -16.795952
85.332108 38.357876 31.10508
147.94725 16.000031 29.775185
2.6702881e-05 26.21513 21.759872
75.793518 39.947803 20.236862
11.270214 60.000057 27.025063
73.511993 23.981632 4.5324707
3.0517578e-05 36.704716 21.717926
2.6702881e-05 6.887394 4.1849442
62.708172 38.368633 30.703377
14.896545 -2.2888184e-05 3.6710358
16.375141 15.999996 19.171936
16.000031 16.75021 -27.732864
137.87213 16.000023 5.6334534
125.88261 16.000027 -30.709892
6.767952 -2.6702881e-05 14.616104
110.34344 0 21.816254
12.572926 60.000042 33.741035
101.67471 -3.8146973e-06 27.045761
82.135147 36.598148 35.000038
148.00005 15.227673 -22.761795
62.237995 20.91032 -16.794724
7.7226524 60.00005 17.667351
97.868332 2.3643494 24.300758
148.00003 14.040928 8.5699768
55.151226 35.26128 3.7430191
85.582474 21.005177 3.7100601
94.66539 34.229855 -29.308418
2.6702881e-05 26.9632 20.208923
72.023224 39.942516 12.616585
66.478821 39.272938 21.600754
131.96976 1.1444092e-05 -11.127815
2.6702881e-05 24.03632 0.57735443
2.6702881e-05 43.456493 34.309502
44.51479 -1.5258789e-05 -2.6894913
35.203053 1.5824547 -35.000053
64.893539 23.125584 -35.000053
12.80537 59.299305 -35.000061
58.454899 36.848454 -33.034142
70.997955 23.796444 -32.537903
16.000027 39.082211 -14.586197
16.000034 41.360783 30.493858
127.32741 16.000019 -9.6813126
101.17297 29.34396 -15.637909
106.88466 0.47844315 35.000038
64.170547 30.858982 -35.000053
96.220215 14.687973 35.000038
6.1565094 -2.2888184e-05 8.6861572
52.274532 10.177654 13.476471
65.03064 36.045811 -35.000053
3.0517578e-05 47.437542 29.027443
16.000031 25.396412 7.5760574
140.82561 4.7470894 35.000038
143.08829 1.1444092e-05 3.2315292
59.181675 27.766674 35.000038
105.07336 -3.8146973e-06 5.9662094
118.37195 16.000027 11.263634
99.586502 30.744106 -29.545135
80.757462 29.456261 35.000038
37.997547 17.394672 -13.195129
0.39335632 37.533573 -35.000053
134.28476 3.8740311 35.000038
62.106953 24.540989 -35.000053
140.35866 6.5512962 13.561096
2.6702881e-05 16.071743 3.7761688
128.55431 3.8146973e-06 3.1891861
93.384857 14.121868 -14.66066
98.485764 31.609741 28.999352
67.206772 39.414883 -9.8627396
93.782944 13.582272 -1.3567352
5.7380371 60.00005 24.156517
148.00003 6.3626404 14.436874
61.204227 37.881001 2.7122726
53.451572 34.301647 3.3444519
148.00003 0.559021 27.553101
81.326721 39.312923 -2.5587845
17.732071 15.345867 -35.000053
108.68781 0 8.5890121
53.55125 12.534172 -19.252434
106.55266 0 -16.588715
52.118275 9.819706 -25.470619
124.73976 16.000027 -12.103844
64.452484 22.000572 -17.518806
120.51732 16.000023 3.0549011
82.537735 39.064053 -25.909477
8.1735573 -2.2888184e-05 4.8034058
110.55411 0 -25.188591
30.19405 15.999996 -28.515625
110.33136 3.8146973e-06 -14.233315
8.658596 37.331966 35.000038
3.4332275e-05 13.126614 -23.490242
3.0988731 9.8920326 -35.000053
81.990829 39.176441 -22.758553
16.000034 52.409176 19.634567
57.245129 24.277088 35.000038
12.200428 -2.2888184e-05 -2.8293533
45.111927 25.193142 35.000038
110.46553 16.413441 18.931046
106.86131 22.778927 33.006096
12.97279 60.000057 -23.534454
96.617798 32.971928 11.639343
69.959167 23.644085 -13.087959
54.733257 35.036976 -3.3860931
13.001667 -2.2888184e-05 2.1272888
29.726734 11.828114 35.000038
55.641247 35.524242 -11.876961
139.4305 3.8146973e-06 -2.6354752
119.26733 3.8146973e-06 -3.0813065
95.746674 10.129192 27.152435
55.625622 15.416245 -20.297684
12.841118 -2.2888184e-05 10.951927
3.0517578e-05 4.5217705 9.8245316
128.95134 16.000027 0.13043213
13.819603 29.508739 5.256691
16.000031 22.803318 -25.126915
105.78795 20.722763 35.000038
51.358051 7.9074402 26.948402
3.4332275e-05 54.397762 28.600349
99.133606 31.100269 -11.489929
3.4332275e-05 42.339474 22.928436
6.7477837 60.000057 -16.000267
2.6702881e-05 11.78281 33.129707
148.00003 8.8528214 8.6884003
63.427898 38.560871 33.537209
3.0517578e-05 11.452274 -15.264626
16.000031 36.866299 -24.400139
50.767796 5.9585533 -17.125671
143.18307 16.000027 -28.985046
16.000027 24.048946 -7.5937119
87.529144 19.822132 -8.9693909
96.562119 8.1358185 17.168587
26.275684 16 19.407928
146.69281 16.000031 10.430862
16.000027 38.519993 21.513428
82.192551 39.134975 16.841995
16.70129 4.8577232 -35.000053
6.2613792 -2.2888184e-05 16.082901
50.104702 32.074032 2.1512756
108.23895 4.1225395 -35.000061
143.79512 1.1444092e-05 -17.72139
51.955677 16.529892 35.000038
34.800137 9.6247292 35.000038
33.331364 10.840343 35.000038
140.40981 6.0015221 18.351387
148.00002 2.923111 -15.859245
73.309677 23.97401 30.208794
144.6028 1.1444092e-05 29.505318
16.000038 50.216068 -24.006248
77.557144 39.82465 29.594261
3.4332275e-05 51.447849 22.446617
16.000027 37.174923 25.551506
51.579121 8.5394859 -8.6238632
132.05684 3.8146973e-06 25.523323
21.498295 -2.2888184e-05 -17.843033
146.63992 16.000031 -1.0976715
11.449757 42.995548 -10.000023
16.000027 19.250637 -8.5220642
101.00722 2.6829071 -35.000061
3.0517578e-05 24.203873 23.614319
30.440586 -1.9073486e-05 -14.338974
5.9983711 13.597656 35.000038
148.00003 7.9933319 -7.5560532
23.578243 16 4.0773849
135.69426 16.000031 22.452217
119.31744 3.8146973e-06 32.163033
15.63348 -2.2888184e-05 14.412086
30.381702 16 5.4328003
5.4541245 23.146656 -35.000053
1.0654449 52.523281 10
2.6702881e-05 3.4659691 13.079681
86.509048 20.464603 -1.0690002
10.567066 23.583294 -35.000053
46.454861 28.994999 -34.16198
2.6702881e-05 2.9925041 -10.938133
0.3511734 13.437084 35.000038
18.644588 15.999996 23.470657
25.904591 -1.9073486e-05 25.845314
146.46109 6.179821 35.000038
27.337704 4.8235741 -35.000053
110.63286 16.058853 20.806236
97.827606 2.7259521 28.008659
46.52248 -1.5258789e-05 8.3851929
144.52676 1.1444092e-05 -17.334549
62.666599 38.357525 23.181488
63.803165 21.717133 -15.641052
90.993362 20.45805 35.000038
131.01447 7.6035767 -15.826836
69.940063 25.362099 35.000038
61.472553 28.203621 35.000038
82.907562 38.988033 -32.836311
13.580349 60.000057 10.227325
23.520329 16 10.239632
131.05211 13.548042 -16.624641
132.26625 14.738369 19.300941
86.601776 37.945034 31.073265
50.33009 3.9046669 21.569237
8.917572 23.429447 -35.000053
14.65498 49.224194 10
52.379742 13.192013 35.000038
109.8067 17.809635 -10.157715
101.57732 28.9631 23.657349
89.388672 18.398144 29.433601
120.66171 16.000023 32.051842
127.10696 16.000027 13.279419
3.1437073 15.314651 35.000038
73.782257 38.47105 35.000038
16.000034 48.184528 -10.610939
3.4332275e-05 42.009296 -22.749687
1.7385597 15.629642 35.000038
30.443111 -1.9073486e-05 -21.727112
72.363098 23.938343 17.697151
16.000034 37.120106 33.798149
3.067646 60.00005 31.00753
67.250992 36.307339 -35.000053
133.56 7.6293945e-06 -29.12458
77.590439 39.821743 -24.538948
109.88965 17.633854 -27.735809
2.6702881e-05 6.5642738 2.7300491
54.859226 35.104572 -27.078522
28.830318 -2.2888184e-05 -28.923241
119.69173 3.8146973e-06 14.031815
6.1472359 44.053043 -35.000053
132.81631 16.000027 -25.869026
16.000034 55.430935 10.797943
12.288471 41.12952 -10.000023
24.126911 -1.9073486e-05 24.659393
2.6702881e-05 12.053642 -17.806519
66.113235 39.197811 -6.7384186
40.834751 -1.9073486e-05 -16.74192
148.00003 14.630001 1.7844009
15.457218 33.846951 9.0805969
27.676273 -1.9073486e-05 11.349113
85.585098 21.003796 4.8531342
106.2702 23.616566 -17.780266
72.982956 23.961697 -21.550041
63.797024 38.659473 -20.728294
82.119873 22.567707 30.701836
16.000027 23.030361 15.650391
123.68221 14.255657 35.000038
61.226398 24.9879 -35.000053
14.189655 -2.2888184e-05 -1.3536606
26.666943 -1.9073486e-05 34.704628
46.663372 -1.5258789e-05 -23.799881
135.83827 7.6293945e-06 -21.002487
3.4332275e-05 38.943661 -17.944214
3.4332275e-05 42.076839 -28.598152
16.000034 28.809402 -11.036331
16.000027 16.009815 -18.980568
109.65602 18.125759 -1.6851883
38.817852 7.6197014 -35.000053
34.644871 -1.9073486e-05 -15.046478
38.500988 -1.5258789e-05 9.91362
16.000023 27.436207 7.0608902
46.108395 28.650562 0.79102325
88.795242 18.888054 20.670868
8.3228645 -2.2888184e-05 -33.847366
3.4332275e-05 44.748074 -21.757896
7.7516975 -2.6702881e-05 -10.058113
128.41231 16.000027 -16.73333
55.445393 15.206852 -13.304611
16.000027 45.358089 -21.044373
86.374451 38.020061 2.2996521
68.870728 23.438 32.933784
116.42693 3.8146973e-06 -2.3712006
28.789318 -2.2888184e-05 -23.709412
13.438114 -2.2888184e-05 23.616043
113.86908 0 -23.554176
16.000031 55.651836 -13.932098
98.083633 23.074425 -35.000053
89.678772 31.113304 35.000038
17.522617 -1.9073486e-05 -16.749123
2.084095 53.130184 35.000038
47.365467 -1.9073486e-05 -24.432098
57.994099 25.748241 -35.000053
34.032711 2.2289162 -35.000053
82.88208 38.993275 -11.941727
68.935699 23.450302 -4.6356583
96.722519 21.230618 -35.000053
9.5336876 7.3961258 35.000038
5.8922615 60.000042 11.298256
140.5927 7.4462776 14.066071
40.594936 1.1857834 -35.000053
3.0690269 60.00005 23.916534
49.001171 -1.5258789e-05 -21.321251
5.4398193 49.128498 -10.000023
54.919552 14.534397 10.106827
107.47273 21.887348 31.493828
7.1203346 -2.2888184e-05 -34.874184
23.920818 15.999996 26.803566
7.968998 -2.6702881e-05 -23.525536
13.522835 8.5657616 -35.000053
61.850658 20.69072 33.98098
82.295746 22.506184 25.850334
97.801498 2.95784 31.535728
4.6442146 29.660404 -5.487114
62.782391 21.197857 -29.995575
100.10666 0 34.352562
104.48544 25.891907 23.013786
12.465115 -2.6702881e-05 -8.0266266
148.00003 1.2651596 -31.179901
94.925644 11.733017 7.1337738
148.00002 15.338009 20.534172
94.111755 31.62849 35.000038
30.405079 16 -29.10997
58.132961 26.492245 35.000038
92.425659 15.356731 23.336235
33.400799 -1.9073486e-05 16.7798
99.822372 0 5.0596161
50.046848 1.2343903 -3.0441818
91.549316 16.367546 11.68309
24.932377 16 -16.278107
107.03845 22.52795 -23.162811
47.890255 6.8407478 35.000038
50.924046 19.830059 35.000038
10.288197 51.985249 -35.000053
11.068829 60.00005 10.362411
9.1753731 40.284992 10
49.334072 -1.5258789e-05 -21.922684
96.746155 21.437706 35.000038
138.52101 7.6293945e-06 20.720116
47.372181 29.826572 -4.7981262
143.43733 16.000031 27.934586
32.664974 -1.9073486e-05 14.895828
137.97903 1.3400459 -11.411133
140.57695 11.730484 35.000038
78.473969 23.562092 -33.136337
44.390125 -1.5258789e-05 21.461197
21.597546 16 18.167961
65.575043 39.0872 32.901939
108.59566 20.073997 33.399544
33.031498 3.3576088 -35.000053
44.612194 27.117397 26.553436
72.67952 39.961437 23.302292
3.0517578e-05 51.539082 15.045654
12.654732 37.743443 -35.000053
49.789371 31.826061 1.5728226
16.000027 19.999172 3.5335388
103.20302 0 -17.975334
16.000031 31.177334 18.433273
5.1370888 41.163815 35.000038
91.471466 19.212669 -35.000053
93.400406 14.100803 -0.64324951
48.061596 -1.1444092e-05 16.46759
9.5485878 60.000057 -19.98835
58.491741 36.863026 -20.486168
15.34898 60.00005 -15.132889
77.348068 39.842892 -3.9426117
129.11971 3.8146973e-06 -1.6323318
44.017262 8.3282356 35.000038
51.87228 33.313457 -12.717903
2.6702881e-05 13.137753 2.5244904
2.6702881e-05 39.032398 10.940269
69.439682 23.545727 -12.688087
3.085804 37.718067 -9.9834366
3.1617851 1.1458778 -35.000053
66.518036 22.790813 -23.382439
84.938065 21.345539 -10.139717
103.78531 0 -10.141479
115.99371 6.0099678 -35.000061
52.432621 33.675869 26.690315
39.620083 -1.9073486e-05 24.736435
50.140125 2.4390297 32.297035
103.35942 27.149181 -3.2590179
63.23785 21.438423 10.382713
73.842529 23.994087 27.189041
148.00005 1.0855522 12.915558
56.57069 16.487476 -8.4837723
98.051514 4.3584442 35.000038
42.919643 25.154465 26.46331
2.8032494 49.576687 -35.000053
95.045685 11.505772 -26.683182
138.34912 1.9670143 11.60569
95.594574 10.466553 25.116119
83.939713 38.729824 14.313408
16.731117 15.999996 24.171143
23.706394 16 4.6670609
5.4600449 60.000057 32.918709
0.0016517639 43.341488 10
139.20886 16.000031 34.814125
40.673023 22.118961 14.814049
15.799915 34.921139 35.000038
75.710083 23.935585 -25.076149
35.549335 -1.5258789e-05 8.0818405
102.90431 27.64389 23.354782
39.557247 20.327724 -28.793427
47.14278 -1.5258789e-05 2.7606354
3.4332275e-05 50.317974 -21.912125
138.87146 10.331833 11.920647
111.40897 0 -24.204147
93.132156 14.464375 31.131447
129.90106 16.000027 -25.817497
95.326859 10.973427 -8.4360275
148.00002 0.87960052 14.434036
4.3499413 -2.6702881e-05 12.052437
49.261471 31.410908 1.5399933
103.24864 0 -18.58062
31.159878 -1.9073486e-05 -1.1687164
79.1138 39.660091 -31.777565
94.595886 29.032658 -35.000053
13.590359 50.850727 -10.000023
132.6769 1.1444092e-05 6.5304413
79.503998 39.603115 25.991753
84.43396 36.21735 35.000038
41.725803 23.61076 5.7669525
51.115925 32.786304 11.901543
48.358906 -1.5258789e-05 -27.324913
23.227383 16 17.380928
144.11966 8.3711166 -35.000061
73.27182 23.972584 10.761978
96.586746 8.0654106 19.109238
145.92004 1.1444092e-05 -19.952126
2.6702881e-05 2.0506859 -18.193382
2.6702881e-05 17.003723 22.102043
43.652149 -1.5258789e-05 3.5250397
121.90999 7.6293945e-06 16.302719
14.2337 -2.2888184e-05 26.355736
104.45346 25.927628 -16.058365
2.6702881e-05 24.584869 -9.0443878
38.295597 -1.9073486e-05 -18.020294
107.23294 22.252312 17.105591
101.79721 -3.8146973e-06 -28.925987
100.54979 -3.8146973e-06 17.363708
140.01512 1.1444092e-05 8.5536728
139.30646 11.478039 12.25959
22.372395 -2.2888184e-05 -5.7149734
112.54633 16.000023 24.539658
86.796021 20.284191 -20.91378
49.577847 -1.1444092e-05 -34.856918
5.9709892 60.00005 -34.36351
148.00005 14.656872 -16.888687
114.11574 3.8146973e-06 -19.456055
148.00005 3.7321243 -21.81691
95.75943 33.55798 3.3117599
73.517242 23.981831 -26.351768
75.447861 23.945469 -18.442299
22.126492 16.000004 28.083275
12.182533 35.048733 -35.000053
98.057495 -3.8146973e-06 -3.8416214
47.706539 -1.5258789e-05 -23.15699
2.6702881e-05 22.875462 23.034637
101.30516 -3.8146973e-06 -26.585098
3.4332275e-05 35.90456 -29.371635
2.016468 -2.6702881e-05 -26.175072
108.52316 20.198563 14.222084
137.79553 7.6293945e-06 7.2675705
147.92419 16.000031 23.440262
77.037628 23.792446 15.567055
7.8977928 29.734959 5.6003494
13.322277 60.000057 -20.483086
16.000034 47.653362 -22.634827
3.4332275e-05 58.078777 23.514107
1.1772118 -2.6702881e-05 -23.626488
39.11861 19.548885 -31.996506
3.0517578e-05 53.741985 30.419945
111.20895 3.8146973e-06 -29.719475
16.000027 21.919086 24.701782
62.845249 38.405239 -17.495865
6.9654884 60.00005 27.893387
91.749771 16.14193 -4.6719589
139.7453 16.000031 10.753479
16.000027 47.555248 31.748817
124.79471 3.8146973e-06 24.689423
12.420536 40.252087 35.000038
79.971893 28.046154 -35.000053
95.067001 11.465412 -25.106377
137.79108 16.000023 -4.9180603
148.00002 11.60302 28.913841
81.604401 22.748016 -17.68679
27.524021 16.000004 -3.1663589
148.00006 1.4357948 10.821136
47.723331 -1.5258789e-05 32.440971
68.570267 23.373943 -19.137466
115.12222 16.000023 25.934509
137.91724 10.143917 -35.000061
142.21323 16.000027 -27.599113
87.720535 19.680931 -28.808746
96.074738 9.3776817 -21.435181
137.68462 16.000031 -33.561447
26.900341 16 12.612808
131.00119 0.90005875 16.014175
86.830643 20.262417 -1.5663071
24.122341 16 -25.133751
16.000031 52.229588 28.949486
50.057308 1.5104675 -9.2373352
131.05563 15.373402 15.332924
37.702908 16.770298 15.374008
97.750275 7.9726944 -35.000053
81.433914 22.807644 -16.954407
139.37801 7.6293945e-06 -6.841301
123.0742 16.000027 -7.1344681
2.6702881e-05 8.0704575 4.7264023
131.02808 7.6293945e-06 19.794525
106.86234 3.8146973e-06 22.176216
47.773243 -1.5258789e-05 -0.28874207
2.6702881e-05 28.241058 -6.213623
122.71164 2.9352875 -35.000061
5.9307518 55.227444 -35.000053
52.442661 33.682049 -17.062447
26.9809 -1.9073486e-05 -16.965271
85.168488 23.0411 35.000038
96.776566 7.5227547 13.108971
132.16484 16.000027 -0.96334839
39.561207 -1.9073486e-05 -15.644981
110.65785 16.005901 32.144707
26.30151 5.5666695 35.000038
124.80331 3.8146973e-06 -25.821564
3.0517578e-05 2.5426903 -33.714485
24.359692 3.2485161 -35.000053
135.49548 3.8146973e-06 8.4849396
141.73692 16.000027 32.645592
132.0201 16.000027 28.860237
138.20862 15.949818 -11.529716
139.90276 1.1444092e-05 31.54467
41.478062 23.259716 4.7036896
50.23962 3.322628 -12.784317
50.189129 2.8742599 -30.804688
102.48444 28.061291 21.593773
16.000034 34.571285 -29.509987
136.11411 1.3926353 35.000038
51.065266 7.0687218 21.097572
139.64104 6.1380272 19.401665
55.403179 15.157803 6.8884506
97.013351 6.7755623 -33.286591
86.053314 20.751133 -13.408989
72.422668 23.940594 -0.92616272
3.0517578e-05 27.024036 8.4422836
110.64114 3.8146973e-06 -21.707481
39.082928 4.0141716 -35.000053
104.21913 26.189251 19.142204
16.000031 41.209423 -16.331276
109.05911 19.222446 26.227722
141.21146 16.000027 29.786659
94.481018 12.482914 24.188934
16.000034 54.29668 -28.460838
131.48889 8.2573204 18.120071
16.000027 48.156483 14.174301
12.405376 18.302525 -35.000053
91.047455 16.869396 3.6200638
59.054829 37.085766 -20.38842
43.267292 15.469181 35.000038
69.495239 39.741955 16.805336
21.571163 2.4973412 -35.000053
120.71599 16.000027 23.053093
7.7524071 47.517544 10
3.4332275e-05 24.436646 -20.606148
98.706451 6.0009384 -35.000053
64.624863 38.880604 2.9715958
3.1410027 60.000057 30.374504
7.2194519 60.00005 -15.522835
122.65018 3.8146973e-06 -25.126297
148.00003 8.4353065 17.749855
132.4209 4.3420677 35.000038
32.978741 16.000004 -6.7909393
110.73734 1.5816116 35.000038
98.000427 -3.8146973e-06 27.828529
3.4332275e-05 53.7206 -34.101242
134.26881 12.862766 11.326134
121.05261 16.000023 -27.446884
96.870789 32.795605 24.360573
148.00005 4.0941505 -27.477333
117.97403 16.000023 -22.007629
3.6842651 29.715595 -5.5709534
105.73778 -3.8146973e-06 17.776047
57.60297 36.469318 17.167984
68.872711 39.6581 8.1644211
131.99693 1.928936 18.982643
60.632114 37.692211 -7.6136475
2.6702881e-05 36.139416 24.512138
54.466106 13.91975 -22.425911
143.31586 1.1444092e-05 6.9730072
19.011074 16 26.1633
145.05222 1.1444092e-05 -26.075111
135.1978 7.6293945e-06 -6.3290024
130.31474 12.710449 35.000038
102.07347 28.469852 31.375038
55.925816 30.131306 35.000038
65.346466 39.040218 14.802536
3.0517578e-05 46.414013 25.61306
107.08444 22.462765 -22.22776
25.914921 4.8149071 -35.000053
99.535873 0 -19.522552
122.73926 16.000027 26.673737
16.000034 31.915607 -13.247787
2.6702881e-05 14.2463 -9.5452118
53.232677 12.027462 -16.339569
101.96004 0 -16.435951
38.285488 18.004868 9.0319138
2.9281502 -2.6702881e-05 -11.063629
103.78914 26.669346 21.788994
0.68161392 60.00005 -12.568481
22.750271 16 -6.776207
2.6702881e-05 24.901379 23.636375
64.423782 33.585293 -35.000053
56.938183 16.854965 -25.742226
47.885708 12.551807 -35.000053
117.4727 3.8146973e-06 -9.0293121
97.531296 9.2348099 -35.000053
144.37465 16.000031 -19.121056
148.00005 9.5833855 12.569206
29.230137 -1.9073486e-05 8.1387024
3.0517578e-05 2.2949295 -19.623482
28.9156 16.000004 16.851204
21.392307 15.999996 5.546196
16.000031 17.550106 -30.516876
137.52357 1.1444092e-05 9.5458069
117.84206 3.8146973e-06 23.754929
148.00003 12.463207 25.486732
54.993397 18.461071 35.000038
3.0517578e-05 28.678841 34.731392
47.815128 14.069778 -35.000053
117.5955 16.000027 15.505371
105.64426 23.590843 35.000038
44.332943 26.805614 -10.377205
3.4332275e-05 37.402706 -31.410904
135.32411 16.000027 -26.42218
90.529861 36.407658 0.67444611
119.07028 16.000023 -32.933655
16.849392 -1.9073486e-05 -1.7470322
16.000034 56.40237 -34.097878
40.010105 21.055767 25.147949
4.8919258 25.396961 35.000038
85.058548 21.281895 34.361305
20.993069 15.999996 -12.593544
13.949841 36.819637 9.9288864
50.244984 3.3702507 3.9307098
127.48062 16.000027 -4.0893097
48.953365 8.6409531 35.000038
109.1026 19.142612 4.5039291
13.033863 9.2021599 35.000038
63.246403 21.442944 -16.285049
146.79651 7.6293945e-06 24.521477
27.555683 -1.9073486e-05 17.545319
127.1313 16.000027 -32.748756
9.2587166 57.351566 35.000038
148.00002 14.122894 0.16204071
3.1994209 60.000057 17.613724
7.9235458 -2.2888184e-05 11.245583
16.000031 55.487858 -33.016258
10.560356 60.000042 -24.716164
37.445904 -1.5258789e-05 9.6699066
148.00002 10.899372 -16.118034
3.4332275e-05 57.592045 -18.359657
110.08098 3.8146973e-06 -30.396042
94.444885 12.540375 27.591713
135.94083 2.6230469 -35.000061
16.000034 20.142323 21.859337
70.649185 39.842648 -3.0826721
48.808643 31.05481 18.719452
24.82893 0.33633041 35.000038
139.11423 7.6293945e-06 -20.678139
148.00002 2.5104752 33.409721
26.043629 2.9473076 -35.000053
16.000027 24.258785 14.736877
40.638088 22.065365 -26.963181
140.20126 5.0327568 -13.320442
98.543427 10.96104 35.000038
97.798889 2.9810524 30.072746
3.0517578e-05 23.214222 0.59009552
143.22485 16.000027 22.122559
7.5896683 30.743305 -35.000053
16.000027 55.759892 31.309059
148.00003 14.763515 -16.181503
16.000027 22.191822 19.949692
135.62125 3.5641708 -20.982765
106.90999 22.709984 -6.8638763
56.521603 35.966969 -28.64476
91.199814 36.096424 -19.096291
55.015614 35.188503 32.10981
81.798874 39.215878 -0.37006378
124.13269 3.8146973e-06 7.0600128
64.616196 22.072041 -2.1923294
9.2326164 3.2060051 -35.000053
47.82803 -1.5258789e-05 28.797356
20.180344 16 12.770546
16.000031 28.053761 3.7463303
51.139965 32.803059 1.269371
94.976379 11.637012 8.5591431
97.965073 0.92077637 21.798012
107.51509 -3.8146973e-06 23.828613
139.33286 16.000027 27.260056
16.000027 59.061123 31.398216
70.746262 23.768131 14.71891
69.38591 37.985958 -35.000053
112.50102 0 31.226891
144.77771 1.9337082 -35.000061
141.30467 16.000031 1.2752304
75.271484 39.962856 -14.003769
108.73415 3.8146973e-06 -8.3409805
3.4332275e-05 56.624622 34.277229
40.352482 11.969841 -35.000053
56.345814 35.885311 -5.0891647
1.0802498 44.607639 -35.000053
30.434727 9.7994881 35.000038
21.480595 13.976559 -35.000053
69.396698 23.537586 -21.471992
67.108124 22.982166 -11.642975
136.69202 7.6293945e-06 1.8533859
37.172085 -1.5258789e-05 -2.8641586
50.587223 5.2623863 -1.4572678
5.4516411 18.506676 -35.000053
2.6702881e-05 12.844654 -13.49276
104.8465 15.357025 35.000038
5.8100128 -2.2888184e-05 -31.468719
3.0517578e-05 47.835529 -12.091393
92.456161 35.472012 8.8433914
2.4806252 27.76931 -35.000053
93.12619 35.112453 -29.397453
40.815678 22.32111 -33.757637
2.6702881e-05 7.1088066 23.720879
105.63217 24.461208 24.558739
16.000031 28.053188 28.42289
50.056034 1.476593 25.707985
70.840088 24.572132 -35.000053
74.73317 23.972397 14.728134
108.73912 19.810421 27.966927
28.327229 14.555141 -35.000053
2.6702881e-05 3.0625496 11.194977
3.0517578e-05 40.786396 34.512245
10.41853 28.415913 -2.849678
86.146683 20.692429 8.1330414
111.13525 16.000019 -34.33609
107.6703 21.56971 -18.593071
76.869553 27.042912 35.000038
91.398743 16.518089 -7.9913635
94.884506 11.810925 24.100845
99.519836 30.796535 13.222984
131.34099 2.8319359 14.217621
96.794449 32.848835 -24.921516
10.790661 -2.2888184e-05 -7.1787186
19.32835 16 -10.101486
3.0517578e-05 17.373402 21.413948
40.956898 22.521221 27.075386
109.44449 18.5144 3.0370026
100.54182 -3.8146973e-06 21.209145
108.34991 20.477077 -4.5627289
2.1920204 26.431416 35.000038
44.931965 27.474415 26.02713
97.947021 1.3974991 -30.123245
3.0517578e-05 51.171253 32.304039
98.749115 31.402645 -17.270859
11.883163 -2.6702881e-05 -9.7345886
91.755035 16.135838 0.56539917
38.541859 18.489204 -20.990639
69.182449 39.70332 -7.4029312
128.59601 7.6293945e-06 -32.260422
105.63078 0 11.862022
2.6702881e-05 0.48109818 22.588402
3.4332275e-05 40.669559 -32.451805
67.673508 23.133656 -28.953537
11.023602 29.357155 -35.000053
56.593998 16.510777 -10.82547
128.0135 16.000031 26.254517
23.430431 -1.9073486e-05 -19.721992
84.534119 38.571041 -20.610367
113.70335 3.8146973e-06 -10.494186
38.416714 18.259274 23.773735
0.26214981 24.573765 35.000038
140.71852 8.6420135 -14.353355
2.6702881e-05 19.70377 -0.67684937
0.68388748 60.00005 -32.00399
148.00005 6.8361244 -11.201843
96.776321 7.5234642 17.288826
81.683487 22.720348 -30.313797
2.6702881e-05 36.215717 26.9468
65.20752 22.330158 26.902733
54.962589 14.592731 -14.901009
110.17148 17.036602 -30.432152
56.498173 32.424778 35.000038
98.390244 31.684856 24.139114
16.000031 27.607929 -26.748627
16.000027 38.549397 18.332817
77.709732 39.811337 -31.993492
139.28827 16.000027 -7.4536438
134.79538 1.4546509 -35.000061
51.748188 33.226971 -28.563599
51.588474 17.689465 35.000038
16.000034 32.862804 -28.135902
16.000031 28.287437 -17.227417
15.241482 60.000057 18.823456
104.1877 26.224365 -29.826492
87.020142 20.143276 26.377457
92.947144 14.715164 -21.049271
5.180851 43.237133 -10.000023
31.085781 16.000004 30.689415
40.54829 -1.9073486e-05 -9.2334595
16.000031 38.163425 -12.148308
3.0517578e-05 7.5076942 -24.496811
111.31544 3.8146973e-06 -31.673042
51.211201 32.207996 35.000038
116.83025 3.8146973e-06 8.5666733
140.9818 16.000027 -2.5730667
16.479443 15.999996 15.244957
106.51767 6.5913734 -35.000061
43.876942 26.296474 -9.7494965
148.00002 5.2541466 16.772507
145.81522 16.000031 -23.87458
3.0517578e-05 27.566563 31.080681
80.475357 23.093788 8.7195892
140.43127 5.8035507 -18.302467
35.412037 -1.5258789e-05 15.110291
9.7425957 60.000057 -22.763313
36.591564 -1.5258789e-05 -6.034729
73.634674 39.988979 -31.211929
16.000034 24.290195 -28.622406
78.908539 29.341885 35.000038
133.32639 8.7903862 20.218735
3.0517578e-05 15.265728 -34.688042
42.96825 25.215542 22.992912
44.928234 27.470272 3.4795151
16.000034 58.017498 -24.262566
12.361595 10.031132 35.000038
142.42307 1.1444092e-05 -27.999878
56.818104 32.145855 -35.000053
6.199234 29.68272 -35.000053
46.327328 -1.5258789e-05 -9.1656113
2.3603516 7.7245827 -35.000053
2.6702881e-05 1.211483 25.270256
52.427341 10.507946 6.7033768
63.203991 38.501064 -23.74514
22.836903 -1.9073486e-05 5.7032166
119.32007 3.8146973e-06 -6.0864944
7.5134773 11.529507 35.000038
100.43489 4.9853821 -35.000053
6.7453499 31.487179 35.000038
114.42369 10.269798 -35.000061
147.97849 16.000031 17.118454
94.682098 12.16309 -14.150475
18.391441 15.999996 -26.492432
89.225235 18.538864 6.2919769
14.644947 -2.2888184e-05 32.246651
30.81197 16.000004 28.827461
11.729572 -2.6702881e-05 8.5571213
101.20924 29.311829 32.674248
91.284271 16.632565 28.773979
119.52669 16.000023 12.263245
80.673904 23.040585 -7.0525665
97.755051 3.3706131 12.739784
97.99617 31.994778 -15.476883
108.89899 19.516678 -26.032715
148.00002 14.109245 29.063866
118.09683 3.8146973e-06 -8.2230911
93.960312 13.311192 -10.512947
90.366531 17.55032 -25.986992
39.862659 -1.5258789e-05 30.082893
2.2888184e-05 21.598251 -0.55727386
129.35033 16.000023 19.180649
96.632828 28.717159 35.000038
12.251537 -2.2888184e-05 -31.050514
89.399689 36.906002 -27.543037
37.940701 17.274227 -1.2362671
74.573334 39.982983 -7.4228973
9.0297661 60.000057 -11.073578
121.19357 7.6293945e-06 11.434464
3.0517578e-05 12.575977 31.286369
114.87859 3.8146973e-06 18.197151
16.000031 54.491161 18.419464
24.064297 15.098721 -35.000053
96.725693 32.89674 -31.223518
31.9147 16 13.733078
73.299118 39.979305 23.177658
48.030941 30.409901 -22.565727
96.111389 33.324886 28.68856
6.6303444 -2.2888184e-05 19.113846
127.29027 3.8146973e-06 13.033615
14.088856 25.961048 35.000038
132.27658 10.034878 -19.31218
132.4937 2.2080383 12.452087
61.935307 20.743946 -5.877327
103.45091 0 -8.2450943
88.492203 19.111652 -28.24205
108.91959 19.478825 19.173569
102.52684 26.824501 -35.000061
89.15947 22.411255 35.000038
3.9783134 2.7486534 35.000038
78.763748 23.507221 -29.907936
48.468571 15.325939 35.000038
48.917645 14.886463 35.000038
33.593601 16 -34.458504
18.46434 16.000004 30.461937
1.0834618 9.8267937 35.000038
141.2299 7.6293945e-06 -5.1766586
2.6702881e-05 5.4212723 14.8265
60.938236 20.117069 -24.80043
107.43723 21.944416 7.8582535
32.040638 15.999996 -27.210602
45.32906 27.875813 -14.978783
79.923569 23.241646 -32.099785
140.68877 9.7258263 17.714569
50.370083 4.1158409 -2.6624069
40.049229 21.118671 -6.7223587
51.165485 7.3569107 26.600151
3.7788124 49.618237 10
66.555862 22.804047 11.772011
21.08778 16 32.200417
68.71846 39.635578 15.754189
104.03474 26.395142 -16.173576
102.42072 -3.8146973e-06 18.889153
3.4332275e-05 55.695461 -30.494583
67.674133 39.483105 19.900528
2.0570602 19.532917 35.000038
67.484787 29.221306 -35.000053
108.50566 16.703758 -35.000061
6.8594704 10.247158 35.000038
9.0035667 59.717808 9.9999924
16.616058 15.999996 2.0045547
88.618332 19.018585 21.392273
2.6702881e-05 45.897655 13.481468
93.964249 13.304909 -16.669708
16.000027 20.586246 34.399117
71.711395 34.670162 35.000038
104.17009 26.24403 -20.26918
12.716061 28.517197 35.000038
16.000031 45.367397 27.442146
2.6702881e-05 9.0937347 3.8907852
32.582645 16.000004 22.892502
16.000034 16.514881 5.2340393
3.4332275e-05 42.243343 -30.503586
101.61923 -3.8146973e-06 23.386452
45.240101 24.926991 -35.000053
3.0517578e-05 9.9416008 -28.138458
16.000027 55.758595 12.389961
81.44841 22.802578 -32.762207
85.774902 38.217907 -17.310242
43.13921 25.430363 -33.484459
110.29649 10.914116 -35.000061
2.6702881e-05 32.107243 33.362785
2.5678139 -2.6702881e-05 -3.9872818
2.6702881e-05 23.21059 18.705315
93.789886 13.572872 -7.2280655
28.228893 8.0700951 -35.000053
18.445175 15.999996 -14.88884
2.6702881e-05 24.475857 13.623634
146.29285 1.1444092e-05 -30.373741
83.051224 38.958508 28.020348
85.072571 21.274506 7.8121338
50.236576 3.2956352 -24.292885
138.48738 16.000027 21.319092
3.4332275e-05 15.880661 -29.207718
48.609577 -1.5258789e-05 34.454887
127.22218 16.000023 12.22052
37.337887 6.4570847 -35.000053
90.635117 36.358761 -19.285957
2.6702881e-05 14.423618 8.0115891
105.22017 24.978863 16.00209
123.62578 16.000027 3.1034851
132.65736 14.726219 12.287819
148.00005 11.918369 -3.7396011
88.474335 37.272045 -32.506638
35.12685 -1.5258789e-05 28.513237
110.58966 16.150402 -14.108841
54.33894 34.825367 19.612328
16.000027 35.670422 -13.185341
16.000031 59.373249 -34.809654
34.367519 -1.9073486e-05 10.514427
33.834583 -1.9073486e-05 -28.759407
53.451824 12.376034 -15.325989
108.86507 19.579014 17.958115
13.558926 46.595097 -35.000053
8.7046623 60.000057 -23.989334
82.247055 22.523235 -17.569244
87.605759 37.613735 -34.225494
80.618927 39.440334 9.2702789
66.188004 22.675369 17.119591
109.16862 19.021259 -32.114471
3.0570488 -2.6702881e-05 12.579521
12.372074 55.196499 10
9.9954109 0.022010803 -35.000053
94.12056 34.564457 -7.0387421
5.0835648 27.280766 -35.000053
131.03497 2.3983078 -15.581047
140.97401 7.6293945e-06 29.675331
123.59235 16.000027 -6.6269836
44.4174 26.899914 -24.178696
61.447323 37.961216 -26.926109
39.219288 19.733891 34.208382
16.000027 36.765835 -12.905067
2.7278252 54.772961 -35.000053
37.911579 17.212494 3.7820435
135.70049 7.6293945e-06 -9.8360138
2.6702881e-05 29.130878 15.444817
38.180996 -1.5258789e-05 -0.058830261
12.896133 33.954021 35.000038
95.951111 30.225861 35.000038
16.000031 33.406124 -33.107155
21.624905 16 -19.82711
37.539249 -1.9073486e-05 -34.283768
15.045033 46.778515 35.000038
26.921474 -1.9073486e-05 33.188927
131.01546 16.000027 -29.517616
101.69727 3.8146973e-06 19.768059
139.08374 7.6293945e-06 33.390968
2.2491684 28.170517 1.8131714
135.7426 9.2468147 -20.982765
3.0517578e-05 25.333229 -22.237701
106.58781 23.166515 -15.017059
135.47688 1.1444092e-05 -2.9608078
141.25194 7.6293945e-06 20.605858
146.63913 1.1444092e-05 -6.4804153
94.048386 13.171089 -11.861496
76.049591 39.940418 11.59848
33.69595 -1.9073486e-05 -14.369896
16.000034 44.700825 13.669334
117.45682 3.8146973e-06 32.87133
9.3687096 18.825645 35.000038
125.79399 1.1444092e-05 -13.441071
1.4842339 57.725681 -10.000031
9.6052055 -2.2888184e-05 24.93959
115.59706 16.000023 23.536705
13.740047 30.357372 -6.4224701
14.772957 60.00005 16.613037
97.993088 0.18304443 -19.705017
1.8655243 29.211639 -4.7446518
16.000034 54.925968 33.20031
41.998714 -1.5258789e-05 18.187874
4.4024124 29.795578 5.6924362
9.1794319 32.403889 35.000038
97.723251 3.6234055 -12.854492
24.220875 3.1182785 35.000038
61.471111 20.452091 -30.015091
17.227528 -2.2888184e-05 -28.556015
33.489841 -1.9073486e-05 -23.591911
16.000027 33.438282 31.581078
45.831249 -1.5258789e-05 8.5476532
73.106964 23.966373 17.555779
37.476749 16.291019 0.76331329
16.000027 40.667591 -31.407417
87.841095 30.22382 -35.000053
3.0517578e-05 45.158855 30.993309
132.70506 6.3622627 35.000038
73.889816 39.996334 27.388336
38.221882 4.3244133 -35.000053
24.965473 16 20.745255
129.99802 16.000027 -18.931511
145.96982 16.000023 3.1631851
136.61429 0.94785309 35.000038
2.6702881e-05 20.482323 -7.9371719
74.880035 28.106655 -35.000053
46.185421 -1.1444092e-05 30.432854
97.509033 4.7544212 -15.028824
21.823803 16 25.507866
13.3979 60.000057 -17.595558
134.83257 4.8332596 35.000038
39.593174 20.385487 4.0149155
3.0517578e-05 37.376682 25.347549
52.507107 10.658951 31.632118
128.3428 7.6293945e-06 -21.877731
3.4332275e-05 36.048351 -31.390785
97.712769 3.6786079 31.167046
3.0517578e-05 21.185345 31.723503
43.165722 25.463684 19.390182
92.198181 35.610455 -13.57058
103.77504 3.4354897 35.000038
108.90947 0 22.200623
50.117031 32.083736 12.344284
78.295654 39.760204 27.916519
48.402645 30.735516 34.558479
142.74513 7.6293945e-06 -17.729942
7.6014366 18.03883 -35.000053
53.285992 34.199955 24.005478
16.000027 19.245411 -32.017883
143.3606 7.6293945e-06 19.420578
94.637543 23.530247 -35.000053
107.51669 21.816647 27.391319
12.137848 -2.2888184e-05 7.324173
3.0517578e-05 50.338406 23.774818
136.2318 16.000023 -30.337151
3.4332275e-05 52.959896 -18.448174
16.000031 30.573116 -22.546181
53.227566 12.019344 13.517891
148.00003 1.9177742 33.55616
100.67943 29.780975 -10.899323
6.8024864 35.376553 35.000038
0.75557327 -2.6702881e-05 21.230515
53.97311 13.20517 -7.4883881
48.768147 -1.5258789e-05 15.229637
16.000031 42.846111 -34.783363
1.1837349 29.545246 35.000038
3.4332275e-05 34.608372 -34.994789
33.891186 16.000004 30.230995
103.79427 26.663666 12.88063
50.187267 2.8577614 -20.935837
94.78302 26.336445 35.000038
148.00005 2.8018875 -34.249626
15.500938 -2.2888184e-05 -2.042366
16.000031 41.27235 -15.134926
89.301529 18.473175 -6.035965
148.00003 9.0921516 -18.524117
3.0517578e-05 19.481281 12.671478
64.114426 21.853008 31.878059
3.4332275e-05 52.693569 26.392311
148.00002 9.67593 22.395897
21.174664 -1.9073486e-05 8.9256592
52.762463 28.741337 35.000038
85.250275 23.32114 -35.000053
74.405045 23.984768 -34.382469
75.557587 23.941334 -13.571274
27.146374 -1.9073486e-05 -11.216301
43.034618 25.298931 18.211456
70.026611 23.656853 17.446304
50.099049 2.0741196 -5.2930603
83.451843 38.860134 -18.931488
148.00003 1.6928673 28.095848
129.19283 3.8146973e-06 25.636536
89.971649 36.666973 1.9275208
26.858891 -1.9073486e-05 -26.934586
131.68431 13.766232 -18.504517
128.16599 16.000023 33.68502
131.90286 13.369637 13.16127
13.014198 43.58559 -35.000053
60.628849 19.922554 -18.809669
54.477818 13.935635 20.440079
54.849895 15.851273 35.000038
69.86554 23.825161 -35.000053
13.926517 42.681988 10
57.870358 17.760303 17.161011
119.47438 3.8146973e-06 29.517189
101.43799 29.10162 3.4223251
70.685928 39.094738 -35.000053
78.139603 39.77383 -15.695435
48.12711 30.495049 -34.91301
61.01305 37.817913 14.254944
105.24672 24.945522 11.729843
16.000034 36.139851 -24.13842
2.0958366 44.686352 35.000038
44.536045 27.032391 1.2382736
49.630779 30.060665 -35.000053
118.49294 3.8146973e-06 -28.35598
84.498322 23.021488 35.000038
3.3955612 -2.6702881e-05 11.860291
139.65218 16.000031 23.469643
110.31998 16.721905 15.870834
46.548809 -1.5258789e-05 -30.391571
83.849701 21.868694 22.917397
58.381359 36.819363 2.6406021
126.50984 3.8146973e-06 24.241013
131.43658 16.000027 -1.4334335
101.57066 0 -32.272804
111.86989 10.466129 35.000038
16.000031 17.316895 10.513474
51.042347 6.983181 13.980728
66.565048 39.290661 -33.862564
2.6702881e-05 18.393456 29.236931
2.5575066 57.584667 9.9999924
32.86858 16 -24.05352
140.78517 4.2271919 17.401398
58.794315 36.982716 -7.5872955
16.000031 17.511353 -17.929947
3.0517578e-05 24.136417 -4.4540939
4.2115326 33.359333 -8.847847
16.000027 34.170307 -24.742889
1.9475822 58.821301 35.000038
55.15591 35.26379 20.431824
145.78073 1.1444092e-05 2.9229126
59.198498 18.883404 -10.894112
54.10043 31.057842 -35.000053
24.891644 16 -34.580513
0.77149582 51.837063 10
123.73387 3.8146973e-06 -12.374992
95.203827 11.206398 -30.132996
2.6702881e-05 11.044914 -14.086655
16.000031 26.401421 -2.9827652
70.864853 23.781467 -2.4711609
3.4332275e-05 44.726025 26.962242
123.09239 16.000027 2.7026825
52.050716 9.6649399 13.22036
16.000027 25.671459 31.329033
12.831135 53.161022 -35.000053
118.7373 16.000027 -11.946976
61.994282 38.141712 23.036613
20.597866 -1.9073486e-05 -17.86277
127.1841 16.000023 -5.970192
16.000031 56.729748 15.113571
34.608654 0.11283112 -35.000053
74.775726 39.977154 22.066956
96.520538 22.004108 35.000038
148.00005 7.4578667 -24.981491
16.529762 15.999996 -25.434349
89.970383 17.897434 10.060371
145.71501 16.000023 1.0249557
38.090992 -1.9073486e-05 -13.415337
146.68849 16.000027 -3.5806274
3.4332275e-05 21.446316 -20.769814
118.57159 9.3930779 35.000038
65.42038 38.97636 -35.000053
16.000023 16.68652 10.707649
89.981079 17.888218 30.390434
14.071171 -2.2888184e-05 -33.930695
30.680119 -1.9073486e-05 -28.656036
46.074116 28.616497 -19.063942
16.000031 37.335392 30.762718
72.636658 23.948658 -33.594093
137.43874 1.1444092e-05 -31.454948
148.00005 6.2371864 7.5990372
128.49422 3.8146973e-06 32.948906
70.513474 39.830799 30.703316
96.577667 8.3399963 -35.000053
2.6702881e-05 29.56134 -11.440826
103.33891 27.172092 -26.024429
15.393436 -2.2888184e-05 26.916672
2.6702881e-05 7.5746574 -12.016602
55.073376 14.742908 11.572388
141.46246 1.1444092e-05 0.10306549
140.47403 5.4507408 -35.000061
3.4332275e-05 8.2183266 -14.950974
130.79359 16.000027 9.2357178
76.333115 39.931438 29.969917
105.45856 15.634075 35.000038
16.669395 16 7.7139969
20.293865 -2.2888184e-05 -5.3031006
108.77968 7.6293945e-06 -22.367538
50.028248 0.74414063 -5.295578
10.432873 40.680798 -35.000053
16.000027 30.779091 -12.427086
16.000034 55.311123 -20.940109
2.6702881e-05 3.9692421 -11.844719
71.580002 23.861912 -20.537834
132.41689 8.2368774 19.464508
96.894409 7.1858482 -29.653664
55.302586 15.040951 1.9210739
60.342358 19.727283 -12.669006
47.751705 -1.1444092e-05 -5.832428
27.912136 16 26.524925
74.073288 23.997265 -12.721527
49.701679 31.757099 23.922714
72.732773 23.952267 6.3118896
122.55046 3.8146973e-06 -2.5398712
51.446987 20.227501 35.000038
68.346527 23.432503 35.000038
16.000027 30.766884 11.739639
78.105927 39.77676 23.245712
123.29724 16.000023 29.370537
104.80997 0 -29.761589
94.530014 12.405006 -22.487595
16.000027 51.208576 27.796822
57.738285 36.532185 2.4483414
148.00003 11.555378 -24.865585
11.598461 60.000057 -17.109772
127.4117 16.000027 -28.997681
109.7679 17.891815 -14.579292
118.46968 3.8146973e-06 34.059349
2.6702881e-05 54.969059 27.357796
3.0517578e-05 18.301228 28.512245
109.2123 18.940994 25.248825
136.29659 16.000031 -28.997368
3.0517578e-05 29.677952 -15.663895
11.922115 30.616631 -35.000053
30.726215 6.8206444 -35.000053
16.000034 58.075283 -33.626015
43.741383 -1.5258789e-05 -4.4644318
5.037384 57.801495 -35.000061
142.79716 11.182865 35.000038
139.95459 4.8328972 -19.056862
13.000805 25.056896 -35.000053
50.675686 5.6148186 -12.485634
133.70636 9.1422119 11.575699
30.071499 -1.5258789e-05 29.740532
3.4332275e-05 26.61779 -19.911453
2.2888184e-05 9.1761551 11.303329
133.48602 12.865833 11.694908
67.784058 39.499165 21.626419
3.4332275e-05 48.453342 -15.422745
140.93419 14.051365 15.210571
3.0517578e-05 4.3075485 -15.97596
119.34306 3.8146973e-06 26.183075
35.894268 16.000004 -2.7398453
2.6702881e-05 25.001411 -0.064186096
53.497791 18.726292 -35.000053
41.355709 23.086338 26.053932
47.285069 -1.5258789e-05 31.921349
110.31467 16.733154 31.292961
50.190876 32.141582 17.156166
53.485775 34.322643 -30.442329
15.877716 -1.9073486e-05 -33.878029
16.000027 30.595898 -6.9252014
3.4332275e-05 45.896053 31.511497
18.434261 -2.2888184e-05 7.7372208
102.78023 0 -2.6397858
40.57761 15.061199 35.000038
2.6702881e-05 11.195232 27.913841
16.000031 26.483532 4.7730637
36.766048 16.000004 -10.2071
16.000034 41.835514 -23.853294
16.000031 31.210323 -31.731476
27.532673 16.000004 5.2939148
141.29675 1.1444092e-05 22.795723
129.03368 16.000027 6.4545822
118.543 3.8146973e-06 -23.233414
22.646832 -1.9073486e-05 -33.943199
3.0517578e-05 29.275227 -25.390488
2.2852707 31.222324 7.3299866
96.975784 13.673527 -35.000053
138.86447 15.90786 -11.91526
131.85172 7.6293945e-06 24.838791
62.415333 21.003983 33.851326
83.892456 38.742443 -5.2310181
148.00002 2.0807037 34.999855
16.000031 51.494999 -11.23774
148.00005 0.36728287 20.915138
131.35303 15.185135 35.000038
16.000031 43.049274 28.484612
3.0517578e-05 31.048298 -24.518166
3.4332275e-05 56.619068 -32.274178
119.61226 16.000023 12.903389
16.000027 34.432369 13.685921
3.4332275e-05 49.079418 -24.072029
38.969524 19.274982 4.4890213
116.55649 16.000023 21.803947
139.59828 3.9628906 -19.448135
99.21608 21.371391 -35.000053
77.984756 23.654713 31.413628
2.051918 -2.6702881e-05 18.891403
34.19994 16 18.591072
39.154736 -1.9073486e-05 16.666664
17.319447 15.999996 -17.946854
35.306042 16.000004 -3.6247253
90.535202 17.38166 -27.380661
135.4411 16.000023 -32.65657
16.000027 22.507496 -15.585014
4.9868813 23.662067 35.000038
56.221783 16.10881 -6.6612549
67.874908 39.512424 -13.922279
32.989109 16.000004 2.9208755
86.558685 37.959255 -16.934113
41.597713 10.601978 35.000038
25.17506 -1.9073486e-05 -6.7556305
7.3372078 60.00005 10.774994
53.915005 13.112743 32.625664
18.712181 16 9.1763611
2.422657 58.311474 35.000038
10.851688 3.7409782 35.000038
49.660511 31.72472 -16.240723
26.22887 -2.2888184e-05 -27.133438
38.083492 17.57679 -4.7911072
106.25153 23.643059 8.0992432
10.763798 40.755398 -10.000023
140.5459 16.000031 22.307434
68.075531 39.541714 -24.376106
100.68057 29.779957 12.9813
108.76993 19.753788 26.94101
148.00003 15.884197 -12.67067
60.133244 37.512356 25.836746
31.363636 16 7.6837311
26.438984 -1.9073486e-05 10.685951
15.516163 60.000057 20.467735
123.19896 0 12.179108
56.99815 36.188351 7.8024902
2.6702881e-05 23.883007 6.6449966
51.470875 8.2299881 -3.7482834
6.4883118 27.098053 -35.000053
51.142414 7.2909508 3.6069031
65.728912 38.343838 35.000038
2.7505341 -2.6702881e-05 8.1162033
80.969925 39.386257 -32.21862
2.6702881e-05 32.560886 14.827774
90.895279 30.128368 -35.000053
139.95195 1.4724846 -19.060936
3.0517578e-05 13.714046 17.734245
2.8984184 56.080769 35.000038
46.676868 7.6789436 35.000038
54.940319 35.148098 13.153404
17.537971 -2.2888184e-05 -33.076073
139.09181 16.000027 -23.863716
42.919987 25.154896 1.4093628
67.641068 39.478283 -1.6771698
88.251999 37.359997 11.143204
101.59355 28.946983 10.900078
2.1785431 40.007626 -35.000053
55.618793 15.702915 35.000038
3.0497246 30.955116 7.0780182
